-1.646479964256286621e-02 4.373993724584579468e-04 -5.548866465687751770e-03
2.980887889862060547e-03 -1.019537635147571564e-02 -5.181407183408737183e-02
-2.097883820533752441e-02 3.472452983260154724e-03 -3.387939929962158203e-02
-4.268646240234375000e-03 -3.206046670675277710e-02 -1.895906217396259308e-02
3.124952316284179688e-03 2.378331683576107025e-02 2.166975848376750946e-02
2.236416935920715332e-02 2.670546993613243103e-03 1.667433045804500580e-02
1.965907216072082520e-02 -3.271272033452987671e-02 3.914503380656242371e-03
-2.075049281120300293e-02 -7.569024339318275452e-03 1.380143687129020691e-03
-2.829942107200622559e-02 -6.406353786587715149e-03 -7.915833964943885803e-03
1.491010189056396484e-03 1.767951063811779022e-02 -3.872873261570930481e-03
2.373433113098144531e-02 3.511542454361915588e-03 -4.018275439739227295e-02
-2.982392907142639160e-02 8.304236456751823425e-03 1.022351253777742386e-02
-1.321640610694885254e-02 -3.593731671571731567e-04 -2.620214410126209259e-02
-1.497626304626464844e-03 1.047783903777599335e-02 -6.132577359676361084e-02
3.297120332717895508e-03 3.481326624751091003e-03 -4.389628767967224121e-02
1.305589079856872559e-02 2.832215838134288788e-02 4.381714761257171631e-02
-3.073662519454956055e-03 -3.024197556078433990e-02 -1.063767261803150177e-02
-1.392662525177001953e-04 1.692037098109722137e-02 -7.617177441716194153e-03
-1.105177402496337891e-02 -1.595074124634265900e-02 -7.972905412316322327e-03
1.681667566299438477e-02 1.065660081803798676e-02 4.601401835680007935e-02
-9.098231792449951172e-03 -1.161948032677173615e-02 -3.005425818264484406e-02
-4.661083221435546875e-03 1.899947039783000946e-02 1.710531674325466156e-02
1.939955353736877441e-02 -1.447448320686817169e-02 -4.506281763315200806e-02
7.801949977874755859e-03 1.919045113027095795e-02 -1.484267599880695343e-02
-8.196651935577392578e-03 -1.539256609976291656e-02 1.420302316546440125e-03
3.726452589035034180e-03 2.424249611794948578e-02 2.488740347325801849e-02
3.025287389755249023e-02 3.509887307882308960e-02 -2.883190847933292389e-02
1.941502094268798828e-02 -3.717140108346939087e-02 4.139086231589317322e-03
-5.088567733764648438e-03 -1.370246894657611847e-02 -6.605696678161621094e-02
-1.673236489295959473e-02 -1.412728615105152130e-02 -6.510594859719276428e-03
-7.938414812088012695e-03 -2.399264462292194366e-02 -1.546748168766498566e-02
2.938765287399291992e-02 3.687509149312973022e-02 -2.250271476805210114e-02
2.534496784210205078e-02 1.296074502170085907e-02 6.503653526306152344e-02
-7.704079151153564453e-03 1.664036326110363007e-02 2.441976033151149750e-02
-8.171498775482177734e-03 -2.466312237083911896e-02 -1.341842301189899445e-02
-5.712151527404785156e-03 1.558237336575984955e-02 -6.896788254380226135e-03
-9.358376264572143555e-03 -8.438767865300178528e-03 1.420300267636775970e-02
1.079291105270385742e-03 6.310181692242622375e-03 -5.608318746089935303e-02
5.170553922653198242e-03 -2.368531562387943268e-02 5.363157019019126892e-03
3.140240907669067383e-03 7.131377235054969788e-03 -5.183658003807067871e-02
5.084246397018432617e-03 1.828823797404766083e-02 -1.076083071529865265e-02
-1.113611459732055664e-02 1.480569131672382355e-02 -3.547085076570510864e-02
2.059909701347351074e-02 2.828046120703220367e-02 -2.431046403944492340e-02
-1.590052247047424316e-02 1.504894904792308807e-02 -5.901597440242767334e-02
1.628258824348449707e-02 2.901464514434337616e-02 4.712814092636108398e-02
-2.541929483413696289e-02 3.064600750803947449e-03 -3.916437178850173950e-02
2.275136113166809082e-02 -3.700120747089385986e-02 4.528691992163658142e-03
1.673388481140136719e-02 -3.147576749324798584e-02 7.413862273097038269e-03
-1.256662607192993164e-02 -1.381346955895423889e-03 -2.563894726336002350e-02
1.831686496734619141e-02 -3.101150877773761749e-02 6.501091644167900085e-03
2.771344780921936035e-02 4.073014110326766968e-02 4.312740266323089600e-02
1.389920711517333984e-03 -1.140459068119525909e-02 -3.186069428920745850e-02
1.853519678115844727e-02 1.061434112489223480e-02 4.684468358755111694e-02
-2.839830517768859863e-02 -6.321566179394721985e-03 -7.771329954266548157e-03
1.857084035873413086e-02 3.638235852122306824e-03 -3.394447267055511475e-02
1.576191186904907227e-02 2.964631281793117523e-02 4.697571694850921631e-02
-1.158732175827026367e-02 -1.338681019842624664e-02 -6.749784946441650391e-02
2.101421356201171875e-03 2.458428405225276947e-02 2.517980895936489105e-02
-8.646547794342041016e-04 1.725905947387218475e-02 -6.037453189492225647e-03
-1.932680606842041016e-04 -3.276091068983078003e-02 -2.411692030727863312e-02
-2.834063768386840820e-02 4.815919324755668640e-03 1.258962415158748627e-02
-1.278579235076904297e-02 1.631032489240169525e-02 -4.004029184579849243e-02
-4.334181547164916992e-03 -1.648196019232273102e-02 -5.613666027784347534e-02
-2.080199122428894043e-02 -4.225077107548713684e-03 1.704701595008373260e-02
-1.852032542228698730e-02 -1.021060533821582794e-02 1.664174720644950867e-03
-4.316121339797973633e-03 -1.478332467377185822e-02 -6.390908360481262207e-02
2.269348502159118652e-02 6.233254447579383850e-03 -3.785431385040283203e-02
2.842158079147338867e-03 5.226599052548408508e-03 -5.120355635881423950e-02
-2.935826778411865234e-03 3.044449351727962494e-02 -1.106427796185016632e-02
-1.872915029525756836e-02 1.049027778208255768e-02 -4.047822207212448120e-02
1.925620436668395996e-02 2.937102504074573517e-02 -2.352883107960224152e-02
-1.333242654800415039e-02 -3.424473106861114502e-05 -2.194523997604846954e-02
1.953744888305664062e-02 -3.206651657819747925e-02 2.195065841078758240e-03
-5.557060241699218750e-03 -1.049882359802722931e-02 6.783572956919670105e-03
1.731401681900024414e-02 1.191654615104198456e-02 3.478874266147613525e-02
-1.899981498718261719e-02 1.017257757484912872e-02 -3.992330282926559448e-02
-2.764666080474853516e-02 9.536681696772575378e-03 -1.405368931591510773e-02
-9.988248348236083984e-04 -1.503728516399860382e-02 -5.695635080337524414e-02
2.993834018707275391e-02 3.656123578548431396e-02 -2.365569211542606354e-02
1.446658372879028320e-02 -3.077741153538227081e-02 7.377741858363151550e-03
2.048948407173156738e-02 -3.885625302791595459e-02 -2.161750569939613342e-03
1.191136240959167480e-02 2.781161479651927948e-02 4.307083785533905029e-02
-1.658350229263305664e-02 -1.215321011841297150e-02 -6.233174353837966919e-04
-1.640737056732177734e-03 -1.383633445948362350e-02 2.285843715071678162e-03
1.989996433258056641e-02 3.100431524217128754e-02 -2.399884350597858429e-02
-8.240610361099243164e-03 -1.384782232344150543e-02 -3.611931204795837402e-02
8.201092481613159180e-03 -2.986955083906650543e-02 -2.803772129118442535e-02
-1.106232404708862305e-02 1.691596396267414093e-02 -3.980688750743865967e-02
1.151978969573974609e-03 1.735810004174709320e-02 -4.094930365681648254e-03
-2.455234527587890625e-03 1.224294118583202362e-02 3.675901144742965698e-02
8.056849241256713867e-03 2.496758662164211273e-02 3.936311602592468262e-02
-4.526376724243164062e-03 1.620122604072093964e-02 -7.058398798108100891e-03
-3.810912370681762695e-03 2.935391478240489960e-02 -1.011387445032596588e-02
-2.855876088142395020e-02 3.776801750063896179e-03 1.299922727048397064e-02
1.787391304969787598e-02 4.782905802130699158e-03 -3.295908123254776001e-02
-6.038844585418701172e-03 -1.534689404070377350e-02 -6.500778347253799438e-02
-8.097231388092041016e-03 1.574336551129817963e-02 2.469900809228420258e-02
2.456754446029663086e-03 -1.712320186197757721e-02 -6.454216316342353821e-03
1.636955142021179199e-02 1.054169144481420517e-02 4.738519340753555298e-02
-3.052055835723876953e-04 -1.599835045635700226e-02 1.678828708827495575e-02
1.564502716064453125e-03 -1.582997478544712067e-02 -4.926960170269012451e-02
-1.423805952072143555e-03 -1.280832476913928986e-02 3.095222637057304382e-03
-2.198150753974914551e-02 -8.041711524128913879e-03 8.965339511632919312e-04
-7.797718048095703125e-03 -2.432080544531345367e-02 -1.452983357012271881e-02
-2.724117040634155273e-02 -7.124338299036026001e-04 1.091150846332311630e-02
-2.145868539810180664e-02 -3.930659964680671692e-03 1.716042123734951019e-02
3.314167261123657227e-03 6.578931584954261780e-03 -5.218566209077835083e-02
-4.188716411590576172e-04 1.007157843559980392e-02 -5.903910845518112183e-02
1.465409994125366211e-03 -1.716609485447406769e-02 -1.177709735929965973e-02
-6.324797868728637695e-03 1.515474729239940643e-02 -6.733680143952369690e-03
-1.498821377754211426e-02 4.150178283452987671e-04 -1.398364081978797913e-03
-1.164647936820983887e-02 1.136608235538005829e-02 2.633719705045223236e-02
2.239874005317687988e-02 2.884736098349094391e-02 -2.556073106825351715e-02
6.520867347717285156e-03 1.540923677384853363e-02 -1.008816994726657867e-02
4.266470670700073242e-03 -6.370382383465766907e-03 -4.579820483922958374e-02
-4.678875207901000977e-03 -3.142768144607543945e-02 -1.917886175215244293e-02
1.929631829261779785e-02 -3.718996793031692505e-02 -6.740862503647804260e-03
-1.541632413864135742e-02 -1.057312823832035065e-02 -6.704271584749221802e-02
-2.839133143424987793e-02 3.734642639756202698e-03 -4.754301905632019043e-02
2.641740441322326660e-02 4.069602489471435547e-02 4.481587558984756470e-02
-2.591788768768310547e-03 -1.131259836256504059e-02 -3.185938298702239990e-02
1.965761184692382812e-02 -3.743308782577514648e-02 3.995096310973167419e-03
7.954955101013183594e-03 2.520973049104213715e-02 3.927300870418548584e-02
-1.377850770950317383e-03 -1.390201784670352936e-02 2.316927537322044373e-03
-1.575291156768798828e-02 1.546068117022514343e-03 -1.862158812582492828e-02
-5.904763936996459961e-03 -2.063586749136447906e-02 -1.770885661244392395e-03
3.302097320556640625e-03 -1.604961790144443512e-02 -5.571702495217323303e-03
-3.711730241775512695e-03 3.044978342950344086e-02 -1.094364561140537262e-02
3.156542778015136719e-03 7.239462807774543762e-03 -5.096403509378433228e-02
2.242907881736755371e-02 -1.838459260761737823e-02 -3.955476731061935425e-02
2.482056617736816406e-03 6.118180230259895325e-03 -4.692879319190979004e-02
-1.169234514236450195e-03 -1.591339148581027985e-02 -5.366638302803039551e-02
1.721292734146118164e-03 -1.688301749527454376e-02 -8.581088855862617493e-03
1.165062189102172852e-03 -1.590608991682529449e-02 -4.976602643728256226e-02
2.638328075408935547e-02 2.650563977658748627e-02 -2.700883336365222931e-02
2.280813455581665039e-02 2.786475233733654022e-02 5.269331485033035278e-02
2.766948938369750977e-02 4.056577384471893311e-02 4.477429389953613281e-02
1.399388909339904785e-02 -2.784574404358863831e-03 4.001440852880477905e-02
-8.791267871856689453e-03 -2.064835466444492340e-02 -7.905969396233558655e-03
-6.404638290405273438e-03 1.631593517959117889e-02 -3.906172513961791992e-02
5.725175142288208008e-03 -3.570551425218582153e-02 -1.313894428312778473e-02
-2.649116516113281250e-02 9.777961298823356628e-03 -1.394374854862689972e-02
-5.410879850387573242e-03 1.553558371961116791e-02 -6.676325574517250061e-03
-1.548272371292114258e-02 -9.668935090303421021e-04 1.357359811663627625e-03
3.283351659774780273e-03 6.638074293732643127e-03 -5.239582806825637817e-02
-1.961770653724670410e-02 -4.756884649395942688e-03 1.098686270415782928e-02
-2.033272385597229004e-02 2.530347555875778198e-04 1.786304078996181488e-02
1.788350939750671387e-02 1.642722450196743011e-02 6.585356593132019043e-02
2.117210626602172852e-02 -3.962890803813934326e-02 -8.106702938675880432e-03
4.415452480316162109e-03 -4.736246541142463684e-03 -4.603582620620727539e-02
-4.584521055221557617e-03 1.440300606191158295e-02 1.500139199197292328e-02
-2.892941236495971680e-02 7.443362846970558167e-03 -4.900579899549484253e-02
2.833333611488342285e-02 4.090511053800582886e-02 -2.871711738407611847e-02
-1.492756605148315430e-02 -3.269882872700691223e-03 1.646090857684612274e-02
-2.431657910346984863e-02 1.100146956741809845e-02 -5.146860331296920776e-02
-1.175108645111322403e-02 1.420834101736545563e-02 -3.507344424724578857e-02
-1.521381735801696777e-02 -2.176584675908088684e-03 5.719853565096855164e-03
-3.285586833953857422e-03 -1.316414959728717804e-02 2.485121600329875946e-02
8.495151996612548828e-03 1.938227005302906036e-02 -1.411882974207401276e-02
-2.801823616027832031e-02 9.176308289170265198e-03 -5.377038568258285522e-02
-1.302728056907653809e-02 -2.669731155037879944e-03 -2.262540347874164581e-02
1.980307698249816895e-02 7.127972319722175598e-03 -3.286933153867721558e-02
-2.973982691764831543e-02 5.136532709002494812e-03 -5.064208060503005981e-02
1.630827784538269043e-02 -2.854053117334842682e-02 -4.315974563360214233e-02
2.287551760673522949e-02 3.931073844432830811e-02 4.875756055116653442e-02
7.870107889175415039e-03 -2.565785683691501617e-02 -5.342604592442512512e-03
2.943009138107299805e-02 3.471244871616363525e-02 -2.214794792234897614e-02
-8.155345916748046875e-03 1.527944393455982208e-02 -3.351201862096786499e-02
-2.224028110504150391e-02 1.144371740520000458e-02 -6.123573333024978638e-02
2.082973718643188477e-03 -2.184530533850193024e-02 2.101628109812736511e-03
-1.308199763298034668e-02 -1.236502267420291901e-02 -6.681700795888900757e-02
2.163529396057128906e-03 2.390253357589244843e-02 2.791534177958965302e-02
-1.390394568443298340e-02 -5.938151851296424866e-03 -1.746191270649433136e-02
2.337989211082458496e-02 -4.152739420533180237e-03 5.740002542734146118e-02
-3.155884146690368652e-02 1.397816464304924011e-03 -4.534402862191200256e-03
-2.431026101112365723e-02 5.090897902846336365e-03 1.012754999101161957e-02
-2.344432473182678223e-02 1.740662381052970886e-03 -3.473228216171264648e-02
-1.243710517883300781e-03 2.335789613425731659e-02 3.090936504304409027e-02
-2.681136131286621094e-03 -1.387633569538593292e-02 2.245750091969966888e-02
-2.768304944038391113e-02 1.107918284833431244e-02 -5.200804024934768677e-02
-5.346864461898803711e-03 1.544860191643238068e-02 -3.614274412393569946e-02
-3.756254911422729492e-03 -1.662064529955387115e-02 2.218505367636680603e-03
-1.875787973403930664e-02 1.037283055484294891e-02 -4.026512801647186279e-02
-3.010928630828857422e-04 -1.033005956560373306e-02 -6.272292882204055786e-02
6.478965282440185547e-03 1.402845606207847595e-03 3.322105854749679565e-02
-2.942481637001037598e-02 8.023163303732872009e-03 1.085190288722515106e-02
-4.642993211746215820e-03 -1.665114797651767731e-02 -5.652045458555221558e-02
3.037160634994506836e-02 3.671002388000488281e-02 -2.501128800213336945e-02
2.061221003532409668e-02 4.317870363593101501e-03 1.812232099473476410e-02
-4.579126834869384766e-04 9.248802438378334045e-03 -5.385426431894302368e-02
1.931315660476684570e-02 -1.463719643652439117e-02 -4.676310718059539795e-02
-2.150034904479980469e-02 -7.919723168015480042e-03 -3.339672088623046875e-02
-5.586177110671997070e-03 -2.492284215986728668e-02 -2.266670204699039459e-02
2.258336544036865234e-02 -3.968289494514465332e-02 -3.822091966867446899e-04
1.349207758903503418e-02 -2.949358709156513214e-02 -4.032315686345100403e-03
2.824664115905761719e-03 5.054159089922904968e-03 -5.057387799024581909e-02
-5.347818136215209961e-03 -2.179110236465930939e-02 -2.035425975918769836e-03
-1.345333456993103027e-02 -3.755444660782814026e-03 -1.866086013615131378e-02
-1.232710480690002441e-02 -1.495779491961002350e-02 -1.793522387742996216e-04
1.374781131744384766e-04 1.894461177289485931e-02 3.282291442155838013e-02
-1.332706212997436523e-02 1.499040983617305756e-02 -3.608790785074234009e-02
-1.795509457588195801e-02 1.082568801939487457e-02 -4.048881679773330688e-02
-1.972690224647521973e-02 -4.750499501824378967e-03 1.069089584052562714e-02
-3.430634737014770508e-03 1.508787833154201508e-02 3.744488209486007690e-02
-1.626056432723999023e-02 -9.297506883740425110e-03 4.078058525919914246e-03
1.958900690078735352e-02 2.918960340321063995e-02 -2.365964092314243317e-02
1.609435677528381348e-02 -4.004438966512680054e-02 -7.111923769116401672e-03
2.443659305572509766e-02 2.889617346227169037e-02 -2.538284100592136383e-02
-8.034527301788330078e-03 -1.528714038431644440e-02 2.159504219889640808e-03
-1.304745674133300781e-02 -2.193989232182502747e-03 7.608538493514060974e-03
1.206248998641967773e-03 -1.983683742582798004e-02 -1.166624762117862701e-02
-1.611888408660888672e-03 1.869460009038448334e-02 -7.573427632451057434e-03
-5.400747060775756836e-03 1.958599500358104706e-02 1.899163983762264252e-02
-5.610585212707519531e-03 -2.510347403585910797e-02 -2.371610887348651886e-02
-2.232611179351806641e-03 -1.235214062035083771e-02 1.925585232675075531e-02
1.804265379905700684e-02 3.668265417218208313e-03 -3.283075988292694092e-02
2.851256728172302246e-02 3.672078996896743774e-02 -2.225701697170734406e-02
-2.754643559455871582e-02 3.028055652976036072e-03 1.370937190949916840e-02
-2.188533544540405273e-03 -1.273523457348346710e-02 2.047052048146724701e-02
-8.178949356079101562e-03 -2.450487948954105377e-02 -1.351241953670978546e-02
-1.289322972297668457e-02 -1.357788033783435822e-02 6.018783897161483765e-04
5.044639110565185547e-04 -3.407333046197891235e-02 -2.228832431137561798e-02
-2.844676375389099121e-02 -6.109187379479408264e-03 -7.187241688370704651e-03
-7.796972990036010742e-03 -1.611397601664066315e-02 -1.043396070599555969e-03
2.308422327041625977e-02 -3.923124074935913086e-02 1.591509208083152771e-03
1.851835846900939941e-02 -3.865455090999603271e-02 -1.410483010113239288e-02
1.602697372436523438e-02 8.394470438361167908e-03 2.405153028666973114e-02
3.079211711883544922e-02 3.796786069869995117e-02 -2.441593445837497711e-02
2.718138694763183594e-02 2.680721692740917206e-02 5.151583254337310791e-02
-1.109141111373901367e-02 -1.581605710089206696e-02 -8.861633017659187317e-03
-3.877311944961547852e-03 3.051172755658626556e-02 -1.129497773945331573e-02
4.636049270629882812e-04 -3.453263640403747559e-02 -2.096995152533054352e-02
1.598924398422241211e-03 2.356923930346965790e-02 2.886156551539897919e-02
2.302706241607666016e-03 1.741849444806575775e-02 -4.379944875836372375e-03
-6.056487560272216797e-03 -2.057467587292194366e-02 -1.572446897625923157e-03
-2.530479431152343750e-02 5.320942029356956482e-03 1.072587631642818451e-02
1.864135265350341797e-03 1.736976765096187592e-02 -4.430564120411872864e-03
1.708674430847167969e-02 -3.703939169645309448e-02 -1.691489852964878082e-02
-7.945775985717773438e-03 -2.410353906452655792e-02 -1.412002928555011749e-02
1.572692394256591797e-02 -3.705567866563796997e-02 -5.026170983910560608e-03
3.524422645568847656e-04 -2.268742956221103668e-02 -1.364508457481861115e-02
-1.772943139076232910e-02 1.346370205283164978e-03 -9.257676079869270325e-03
1.909813284873962402e-02 -3.716900199651718140e-02 4.339186474680900574e-03
-2.339154481887817383e-03 -1.429913379251956940e-02 2.180881612002849579e-02
-7.037222385406494141e-03 -1.497893966734409332e-02 -6.583782285451889038e-02
1.319777965545654297e-02 -3.253328055143356323e-02 -2.320829220116138458e-02
-3.548055887222290039e-03 -1.270649023354053497e-02 2.613009326159954071e-02
1.774501800537109375e-02 -3.381839394569396973e-02 -9.184869006276130676e-03
-7.958233356475830078e-03 -2.309967763721942902e-02 -8.462885394692420959e-03
-1.559838745743036270e-02 1.144543103873729706e-02 -4.257820546627044678e-02
3.388166427612304688e-03 3.346560522913932800e-03 -4.757706820964813232e-02
7.375150918960571289e-03 -2.548392303287982941e-02 6.597189232707023621e-03
2.837455272674560547e-02 8.556826040148735046e-03 6.571866571903228760e-02
-2.791792154312133789e-02 5.002466961741447449e-03 -4.812476783990859985e-02
-2.852183580398559570e-02 4.601022228598594666e-03 1.270504854619503021e-02
1.822006702423095703e-02 7.187901064753532410e-03 6.867747008800506592e-02
-9.748786687850952148e-03 -1.673419214785099030e-02 -1.397262699902057648e-02
-4.846721887588500977e-03 -2.786630578339099884e-02 -2.313324995338916779e-02
-1.929262280464172363e-02 1.573009416460990906e-03 1.140424422919750214e-02
-2.697497606277465820e-02 4.039285704493522644e-03 1.311816088855266571e-02
1.888751983642578125e-03 -2.089550718665122986e-03 -5.909591168165206909e-02
-1.572954654693603516e-02 -9.689794853329658508e-03 4.203652963042259216e-03
-4.610270261764526367e-03 -1.668164320290088654e-02 -5.618167668581008911e-02
-2.833390235900878906e-02 1.015687175095081329e-02 -5.136504769325256348e-02
-8.231997489929199219e-04 1.036515273153781891e-02 -5.901785194873809814e-02
-1.120835542678833008e-03 2.230375818908214569e-02 3.282371163368225098e-02
2.068030834197998047e-02 -3.948765248060226440e-02 -7.747935131192207336e-03
-3.572314977645874023e-03 -1.814647205173969269e-02 1.349372789263725281e-03
-2.005589008331298828e-02 1.363777555525302887e-02 -5.571987479925155640e-02
-8.486539125442504883e-03 -1.112533453851938248e-02 6.753860041499137878e-03
1.301324367523193359e-02 2.808152697980403900e-02 4.385526478290557861e-02
1.186862587928771973e-02 9.948974475264549255e-03 3.368592262268066406e-02
-8.434504270553588867e-03 -2.144471742212772369e-02 -7.212216034531593323e-03
2.709376811981201172e-02 2.533242665231227875e-02 4.882607609033584595e-02
-8.296102285385131836e-03 -2.299817837774753571e-02 -1.536548323929309845e-02
2.668029069900512695e-02 3.903675824403762817e-02 4.312337189912796021e-02
-4.094928503036499023e-03 1.454299502074718475e-02 1.467323116958141327e-02
-2.193298935890197754e-02 -1.000654883682727814e-02 -3.591794520616531372e-02
5.602449178695678711e-03 1.724684610962867737e-03 -4.180779308080673218e-02
-2.969932556152343750e-02 -9.723398834466934204e-04 -4.542125761508941650e-02
1.050841808319091797e-02 2.565903775393962860e-02 4.112733900547027588e-02
2.088057994842529297e-02 -3.992266952991485596e-02 -1.033964194357395172e-02
2.867627143859863281e-02 3.691724687814712524e-02 -2.226375229656696320e-02
-1.338183879852294922e-03 1.847973279654979706e-02 -7.723296061158180237e-03
-4.976749420166015625e-03 -1.012447662651538849e-02 7.463818415999412537e-03
-1.144522428512573242e-02 1.460066996514797211e-02 -3.537937253713607788e-02
3.974348306655883789e-03 -1.636187918484210968e-02 5.051409825682640076e-03
1.496267318725585938e-02 1.181815378367900848e-02 3.645731508731842041e-02
3.869414329528808594e-03 -2.352161146700382233e-02 -2.979862876236438751e-02
-9.868592023849487305e-03 -1.742121018469333649e-02 -1.271077431738376617e-02
7.028609514236450195e-03 1.596518419682979584e-02 -1.167100854218006134e-02
2.864089608192443848e-02 3.039726056158542633e-02 -2.363173104822635651e-02
-7.354915142059326172e-04 1.717689447104930878e-02 -5.781883373856544495e-03
-2.867314219474792480e-02 6.334466859698295593e-03 1.224457286298274994e-02
5.474686622619628906e-03 -2.364637143909931183e-02 -2.793576009571552277e-02
-2.792996168136596680e-02 2.364417538046836853e-03 1.332265697419643402e-02
1.585417985916137695e-02 -3.041637130081653595e-02 -1.804577186703681946e-03
1.523011922836303711e-02 -3.922343254089355469e-02 -5.960645154118537903e-03
3.085404634475708008e-03 3.773732110857963562e-03 -4.452119022607803345e-02
1.624917984008789062e-02 1.047694496810436249e-02 1.672178320586681366e-02
2.539226412773132324e-02 3.280003368854522705e-02 -2.670078910887241364e-02
-1.216331124305725098e-02 1.596656255424022675e-02 -3.868116438388824463e-02
-7.421612739562988281e-03 -9.027237072587013245e-03 7.877534255385398865e-03
4.099488258361816406e-03 -6.575049832463264465e-03 -4.579929262399673462e-02
2.257683873176574707e-02 -3.787640482187271118e-02 3.817131742835044861e-03
-7.353454828262329102e-03 -8.839311078190803528e-03 8.456004783511161804e-03
-3.669887781143188477e-03 1.614752970635890961e-02 3.689251095056533813e-02
1.866832375526428223e-02 3.160361945629119873e-02 -2.410852350294589996e-02
5.477279424667358398e-03 -1.550817675888538361e-02 3.287380561232566833e-03
5.828946828842163086e-03 1.437565311789512634e-03 -4.206830263137817383e-02
6.286263465881347656e-03 1.698354445397853851e-02 -9.506748989224433899e-03
-1.926913857460021973e-02 6.654169410467147827e-04 -1.036937721073627472e-02
2.309641242027282715e-02 6.491253152489662170e-03 -3.775698691606521606e-02
-9.107977151870727539e-03 1.750419847667217255e-02 -3.823841363191604614e-02
-5.270689725875854492e-03 1.575077138841152191e-02 -6.916383281350135803e-03
-1.213309168815612793e-02 1.414420269429683685e-02 -3.500834107398986816e-02
-2.734926342964172363e-02 5.031241104006767273e-03 1.236611418426036835e-02
2.143234014511108398e-03 6.275666877627372742e-03 -4.644485563039779663e-02
7.627665996551513672e-03 2.472511492669582367e-02 3.868766129016876221e-02
-2.612462639808654785e-02 -1.151667907834053040e-03 9.404076263308525085e-03
2.236157655715942383e-02 5.641786381602287292e-03 6.910372525453567505e-02
-3.866940736770629883e-03 1.968334428966045380e-02 1.732920669019222260e-02
-3.041875362396240234e-02 1.898324117064476013e-03 -4.785545170307159424e-02
-1.017835736274719238e-02 -1.394316740334033966e-02 -6.766060739755630493e-02
2.876114845275878906e-02 3.035180829465389252e-02 -2.413137443363666534e-02
-2.146533131599426270e-02 -4.296097904443740845e-04 -3.174152970314025879e-02
1.130282878875732422e-02 2.601831220090389252e-02 4.170536249876022339e-02
1.760569214820861816e-02 1.105297915637493134e-02 3.579298406839370728e-02
1.858517527580261230e-02 2.837024070322513580e-02 -2.788607217371463776e-02
-2.333891391754150391e-02 -5.161063745617866516e-03 1.694924198091030121e-02
-1.422330737113952637e-02 1.601005904376506805e-02 -4.145088791847229004e-02
2.846419811248779297e-03 -2.087741531431674957e-02 2.189127728343009949e-03
1.282751560211181641e-03 -2.009632624685764313e-02 2.620128914713859558e-03
-1.113557815551757812e-02 1.724574156105518341e-02 -3.758403658866882324e-02
2.485892176628112793e-02 3.258740529417991638e-03 -4.015874117612838745e-02
1.916405558586120605e-02 -1.479392684996128082e-02 -4.582784324884414673e-02
3.213316202163696289e-03 7.055500522255897522e-03 -5.143020302057266235e-02
8.317440748214721680e-03 -1.801640726625919342e-02 6.994938477873802185e-03
-5.515754222869873047e-03 -2.322759665548801422e-02 -2.742173150181770325e-03
-3.221929073333740234e-04 -1.045534200966358185e-02 -6.239553540945053101e-02
1.585355401039123535e-02 -3.695128858089447021e-02 -1.760847307741641998e-02
-1.323071122169494629e-02 -1.220274716615676880e-04 -2.679724432528018951e-02
-1.954522728919982910e-02 -5.205759778618812561e-03 8.415451273322105408e-03
2.093899250030517578e-02 3.211853653192520142e-02 -2.496686764061450958e-02
-2.798050642013549805e-03 1.657925359904766083e-02 -6.682271137833595276e-03
8.752822875976562500e-03 -2.955089695751667023e-02 -2.763620950281620026e-02
2.031013369560241699e-02 4.847718402743339539e-03 1.787696592509746552e-02
-2.734345197677612305e-02 4.570795223116874695e-03 1.244074665009975433e-02
3.367006778717041016e-03 6.310379132628440857e-03 -4.813122004270553589e-02
-7.409662008285522461e-03 -9.451748803257942200e-03 7.240889593958854675e-03
-1.276710629463195801e-02 -6.820539012551307678e-03 -1.740394718945026398e-02
-2.014908194541931152e-02 3.231745213270187378e-04 1.791211031377315521e-02
-1.296421885490417480e-02 1.458021067082881927e-02 -4.532136768102645874e-02
-3.987848758697509766e-03 -1.182144321501255035e-02 2.730196528136730194e-02
-3.476530313491821289e-03 -1.713594980537891388e-02 2.016386017203330994e-03
3.033336997032165527e-02 3.691207617521286011e-02 -2.487652935087680817e-02
-8.806020021438598633e-03 -1.459954865276813507e-02 1.682041212916374207e-03
1.981705427169799805e-02 5.044078454375267029e-03 -3.530327230691909790e-02
-5.793094635009765625e-03 1.550679095089435577e-02 -3.626228123903274536e-02
2.019152045249938965e-02 5.032120272517204285e-03 1.805467717349529266e-02
-6.864786148071289062e-03 1.671259663999080658e-02 2.318436466157436371e-02
-1.971217989921569824e-02 9.263085201382637024e-03 -3.978631645441055298e-02
-2.836334705352783203e-02 5.138320848345756531e-03 -4.911415278911590576e-02
-2.824059128761291504e-02 4.861382767558097839e-03 -4.887941479682922363e-02
1.894563436508178711e-03 -7.377931848168373108e-03 -3.213993459939956665e-02
4.936695098876953125e-03 -6.364541128277778625e-03 -4.857350140810012817e-02
-7.648229598999023438e-03 1.609295420348644257e-02 2.408620528876781464e-02
-1.576918363571166992e-02 2.028606832027435303e-05 -3.366919234395027161e-03
-3.032627701759338379e-02 2.663375809788703918e-03 -4.853275418281555176e-02
-1.117891073226928711e-02 -1.218392886221408844e-02 3.726279363036155701e-03
-9.699463844299316406e-03 1.619264669716358185e-02 -3.459411859512329102e-02
2.809941768646240234e-03 5.103195086121559143e-03 -5.077824741601943970e-02
1.289010047912597656e-03 -1.963819004595279694e-02 -1.144653744995594025e-02
-1.451408863067626953e-02 -1.767629757523536682e-03 -1.946695335209369659e-02
-2.801251411437988281e-02 8.843531832098960876e-03 -5.321173369884490967e-02
1.162886619567871094e-04 -1.648964174091815948e-02 1.652416400611400604e-02
-3.061819076538085938e-02 2.509424462914466858e-03 -4.935991019010543823e-02
5.354821681976318359e-03 2.560278400778770447e-03 -4.797665774822235107e-02
-7.182836532592773438e-03 1.585614122450351715e-02 -3.726228326559066772e-02
-6.015419960021972656e-03 1.548251323401927948e-02 -3.669483214616775513e-02
-7.814228534698486328e-03 -2.414575405418872833e-02 -1.116566546261310577e-02
3.173917531967163086e-03 7.203610613942146301e-03 -5.117503553628921509e-02
-1.288005709648132324e-02 -1.688452437520027161e-03 9.179277345538139343e-03
5.280852317810058594e-03 2.532871440052986145e-03 -4.523357003927230835e-02
-1.504391431808471680e-03 -1.279667206108570099e-02 1.874778233468532562e-02
1.575201749801635742e-03 2.347462438046932220e-02 2.906100265681743622e-02
1.962900161743164062e-02 -3.826584666967391968e-02 3.628378733992576599e-03
-1.567339897155761719e-02 2.127718180418014526e-04 -3.442974761128425598e-03
3.053811192512512207e-02 3.495472669601440430e-02 -2.777535654604434967e-02
-2.159217000007629395e-02 1.122476253658533096e-02 -6.170811504125595093e-02
-7.787555456161499023e-03 1.838128827512264252e-02 2.343977801501750946e-02
-1.913285255432128906e-02 1.493943855166435242e-03 1.124241016805171967e-02
8.795261383056640625e-04 7.339389994740486145e-03 -4.945441335439682007e-02
3.067672252655029297e-03 -2.020941115915775299e-02 1.810221001505851746e-03
-3.369748592376708984e-04 2.324729226529598236e-02 3.133154660463333130e-02
6.158858537673950195e-03 3.288183361291885376e-04 -4.139488190412521362e-02
2.001732587814331055e-03 -7.159160450100898743e-03 -3.205077350139617920e-02
-3.712654113769531250e-03 -1.216606982052326202e-02 2.721699886023998260e-02
1.962238550186157227e-02 -3.051608987152576447e-02 4.291547462344169617e-03
-2.456495165824890137e-02 5.095710977911949158e-03 1.037131063640117645e-02
-3.095299005508422852e-03 1.484730653464794159e-02 3.755404800176620483e-02
5.912780761718750000e-05 -3.466574102640151978e-02 -2.008884586393833160e-02
-1.394763588905334473e-02 -1.133909262716770172e-02 -2.985012717545032501e-02
-2.627462148666381836e-02 9.643746539950370789e-03 -1.389513444155454636e-02
-2.068704366683959961e-02 -7.993081584572792053e-03 -3.286524862051010132e-02
-1.321744918823242188e-02 -1.267994381487369537e-02 -1.411928422749042511e-02
1.151999831199645996e-02 2.781747095286846161e-02 4.269634932279586792e-02
-1.893410086631774902e-02 1.534171961247920990e-02 -6.143938750028610229e-02
-2.203229069709777832e-02 1.112393476068973541e-02 -6.155817210674285889e-02
-3.772825002670288086e-03 1.338830403983592987e-02 3.685116767883300781e-02
-1.944357156753540039e-02 8.678119629621505737e-04 -9.712049737572669983e-03
6.942152976989746094e-04 2.416015230119228363e-02 2.880877070128917694e-02
-3.848105669021606445e-03 -1.161159016191959381e-02 -3.190770000219345093e-02
-1.559749245643615723e-02 -1.399653032422065735e-03 3.544820472598075867e-03
-2.778604626655578613e-02 2.227490767836570740e-03 1.368228159844875336e-02
-3.657341003417968750e-04 -1.053337939083576202e-02 -6.268224865198135376e-02
-1.442205905914306641e-02 -4.083672538399696350e-03 1.653045229613780975e-02
-1.318350434303283691e-02 7.202085107564926147e-04 -2.169625647366046906e-02
-2.456715703010559082e-02 1.126039959490299225e-02 -5.242677778005599976e-02
1.338946819305419922e-02 -2.695895917713642120e-02 3.759449347853660583e-03
2.224951982498168945e-03 6.210928782820701599e-03 -4.628491401672363281e-02
-1.365271210670471191e-02 1.546820439398288727e-02 -4.430848360061645508e-02
1.675188541412353516e-04 -3.403694182634353638e-02 -2.222415246069431305e-02
8.138656616210937500e-03 -1.817374862730503082e-02 -4.065302014350891113e-02
-2.058207988739013672e-03 -1.613599993288516998e-02 -5.771001428365707397e-02
-1.672974228858947754e-02 2.599863335490226746e-03 -1.677135564386844635e-02
2.544733881950378418e-02 3.923390060663223267e-02 4.393469542264938354e-02
-2.448561787605285645e-02 3.013821318745613098e-03 -4.187307506799697876e-02
-2.651721239089965820e-03 3.116775490343570709e-02 -1.177536137402057648e-02
-5.581796169281005859e-03 1.605661027133464813e-02 -7.034981623291969299e-03
-1.352491974830627441e-02 1.559553481638431549e-02 -4.428565502166748047e-02
-1.471936702728271484e-02 -5.100984126329421997e-04 5.962606519460678101e-04
4.738569259643554688e-06 -3.449836373329162598e-02 -2.080264128744602203e-02
-2.192738652229309082e-02 -7.856296375393867493e-03 -3.358070552349090576e-02
1.372712943702936172e-02 -3.316459059715270996e-02 -2.214847691357135773e-02
-9.952783584594726562e-04 -1.309277303516864777e-02 1.760922186076641083e-02
-8.655428886413574219e-03 -1.389250345528125763e-02 -3.657728433609008789e-02
2.685290575027465820e-02 3.872612863779067993e-02 -2.631576545536518097e-02
-3.674894571304321289e-03 -3.014633990824222565e-02 -1.080380566418170929e-02
-1.881858706474304199e-02 1.331930980086326599e-03 1.079517416656017303e-02
-1.434221863746643066e-02 -6.771812215447425842e-03 1.330742798745632172e-02
1.507818698883056641e-02 -3.184238821268081665e-02 4.088452085852622986e-03
5.704760551452636719e-04 -1.318059954792261124e-02 -4.186161607503890991e-02
-6.106078624725341797e-03 1.326416619122028351e-02 -4.740990698337554932e-02
2.774873375892639160e-02 2.504265122115612030e-02 4.819605499505996704e-02
1.630610227584838867e-02 1.085731945931911469e-02 4.588911682367324829e-02
-2.827751636505126953e-02 -1.148898227256722748e-04 1.165360771119594574e-02
3.194868564605712891e-03 3.558559343218803406e-03 -4.518242925405502319e-02
2.739414572715759277e-02 4.037296772003173828e-02 4.520594328641891479e-02
1.829192042350769043e-02 -3.416730463504791260e-02 5.637673661112785339e-03
1.879036426544189453e-04 -1.467529870569705963e-02 -5.465929955244064331e-02
-2.503356337547302246e-02 1.741832122206687927e-03 -3.656080365180969238e-02
2.007833123207092285e-02 -3.845370560884475708e-02 3.796963021159172058e-03
-3.301560878753662109e-03 -2.799511142075061798e-02 -5.726473405957221985e-03
-3.635525703430175781e-03 -1.255762763321399689e-02 2.544208429753780365e-02
2.315342426300048828e-02 3.202089667320251465e-02 -2.693071402609348297e-02
-1.291465759277343750e-02 1.634583435952663422e-02 -4.031124711036682129e-02
-4.531443119049072266e-03 -3.218843042850494385e-02 -1.955092884600162506e-02
-1.400709245353937149e-02 1.479292754083871841e-02 -5.847032368183135986e-02
2.716958522796630859e-03 1.730359904468059540e-02 -8.747221902012825012e-03
3.244727849960327148e-03 7.068416103720664978e-03 -5.055567622184753418e-02
2.453207969665527344e-03 5.926745012402534485e-03 -4.598509520292282104e-02
-1.615476608276367188e-02 3.820341080427169800e-04 -4.900464788079261780e-03
1.985242962837219238e-02 -3.681337088346481323e-02 -7.441068068146705627e-03
-1.154276728630065918e-02 -6.836311891674995422e-03 -1.781526394188404083e-02
-1.134037971496582031e-02 -6.810816004872322083e-03 1.663619838654994965e-02
2.390554547309875488e-02 3.935006260871887207e-02 4.817216098308563232e-02
-1.068055629730224609e-02 -7.923202589154243469e-03 -2.863595075905323029e-02
-7.663458585739135742e-03 -9.794401004910469055e-03 7.298586890101432800e-03
6.597667932510375977e-03 1.743610762059688568e-02 -1.368817128241062164e-02
2.155634760856628418e-02 3.172418102622032166e-03 1.729268394410610199e-02
4.684358835220336914e-03 -1.645173318684101105e-02 4.406614229083061218e-03
4.808813333511352539e-03 3.305187448859214783e-03 -4.698992520570755005e-02
-9.367316961288452148e-03 -1.766513474285602570e-02 -1.292058266699314117e-02
-2.373337745666503906e-03 -1.424768008291721344e-02 2.223123423755168915e-02
1.121163368225097656e-03 2.446389012038707733e-02 2.770071290433406830e-02
-2.828082442283630371e-02 6.419835612177848816e-03 -4.852782934904098511e-02
1.765102148056030273e-02 8.703587576746940613e-03 6.806573271751403809e-02
-2.843967080116271973e-02 -6.364503875374794006e-03 -8.028673008084297180e-03
2.383336424827575684e-02 -2.028740383684635162e-02 -4.045563936233520508e-02
2.009525895118713379e-02 3.389919549226760864e-02 -2.648477442562580109e-02
-1.267462968826293945e-03 -1.840008236467838287e-02 -2.425281144678592682e-02
8.086413145065307617e-03 -2.557505108416080475e-02 -4.980640485882759094e-03
-8.907586336135864258e-03 -1.052258256822824478e-02 7.577454671263694763e-03
3.031519055366516113e-02 3.439874202013015747e-02 -2.541586942970752716e-02
-4.455447196960449219e-04 -1.602439023554325104e-02 1.741160266101360321e-02
2.404987812042236328e-02 -1.401572115719318390e-02 -3.980816155672073364e-02
-2.792721986770629883e-02 9.519571438431739807e-03 -5.415708571672439575e-02
1.494881510734558105e-02 -3.182692825794219971e-02 3.975091502070426941e-03
-5.129843950271606445e-03 1.590043120086193085e-02 -6.976457312703132629e-03
-2.793574333190917969e-02 1.079966686666011810e-02 -5.170951038599014282e-02
-1.973152160644531250e-03 1.846355758607387543e-02 -7.375704124569892883e-03
1.486417744308710098e-02 -2.811781503260135651e-02 -4.397063702344894409e-02
8.766323328018188477e-03 -1.825704611837863922e-02 -4.295147955417633057e-02
2.461880445480346680e-03 -2.294534631073474884e-02 -2.802088297903537750e-02
1.112908124923706055e-03 -2.071315981447696686e-02 2.360304817557334900e-03
1.113563776016235352e-03 2.245777659118175507e-02 3.106137178838253021e-02
1.731723546981811523e-03 -2.165178395807743073e-02 -2.766140736639499664e-02
6.900370121002197266e-03 1.509401015937328339e-02 -1.026423461735248566e-02
-5.847126245498657227e-03 -1.044210232794284821e-02 6.832024082541465759e-03
-2.800297737121582031e-02 1.015625707805156708e-02 -5.900128185749053955e-02
3.489255905151367188e-04 -3.434653580188751221e-02 -2.128111012279987335e-02
6.271600723266601562e-04 -2.438624389469623566e-02 -1.801283098757266998e-02
-2.849268913269042969e-02 4.129489883780479431e-03 -4.788374900817871094e-02
1.907002925872802734e-02 -1.491411961615085602e-02 -4.703716933727264404e-02
-2.883085608482360840e-02 -5.257891491055488586e-03 -6.253318861126899719e-03
5.093425512313842773e-03 2.767102792859077454e-03 -4.824184626340866089e-02
-1.706641912460327148e-02 1.113162375986576080e-02 -4.120641946792602539e-02
-2.380892634391784668e-02 3.449691459536552429e-03 -4.135070741176605225e-02
1.867240667343139648e-02 3.237494826316833496e-02 -2.402300573885440826e-02
-2.933859825134277344e-03 -2.528470940887928009e-02 -4.801843315362930298e-04
-8.594989776611328125e-03 -1.388441957533359528e-02 -3.646844625473022461e-02
-7.432997226715087891e-03 1.637194119393825531e-02 2.398359589278697968e-02
-2.795839309692382812e-02 4.917340353131294250e-03 -4.838047176599502563e-02
-1.405790355056524277e-02 -1.003013923764228821e-03 -2.284401841461658478e-02
1.580518484115600586e-02 -3.685422986745834351e-02 -1.787171699106693268e-02
3.026276826858520508e-02 3.366252034902572632e-02 -2.551493979990482330e-02
1.635503768920898438e-02 7.671421393752098083e-03 2.433594875037670135e-02
3.346741199493408203e-03 6.677152588963508606e-03 -4.977063834667205811e-02
6.417185068130493164e-03 1.561807654798030853e-02 -1.015594787895679474e-02
-1.172810792922973633e-02 1.154564879834651947e-02 2.654240839183330536e-02
-2.282741665840148926e-02 1.114560104906558990e-02 -5.033607035875320435e-02
1.097196340560913086e-02 1.019624434411525726e-02 3.312695026397705078e-02
5.007445812225341797e-03 2.948259934782981873e-03 -4.792223870754241943e-02
-7.632285356521606445e-03 -1.376211084425449371e-02 -3.556510061025619507e-02
-3.180927038192749023e-02 6.866212934255599976e-04 -6.261350587010383606e-03
2.459529042243957520e-02 9.511714801192283630e-03 6.789807230234146118e-02
-2.391949295997619629e-02 1.097482629120349884e-02 -5.127075314521789551e-02
1.193219423294067383e-02 1.133643556386232376e-02 3.344696760177612305e-02
2.654194831848144531e-04 1.871876977384090424e-02 3.289121389389038086e-02
-1.228314638137817383e-02 1.588833890855312347e-02 -3.866275399923324585e-02
2.679094672203063965e-02 3.965485095977783203e-02 4.360579699277877808e-02
-1.987895369529724121e-02 -1.049190945923328400e-02 -3.207806497812271118e-02
1.332324743270874023e-02 -2.654173411428928375e-02 4.676437005400657654e-03
1.575708389282226562e-02 -3.675319999456405640e-02 -1.814362592995166779e-02
2.507507801055908203e-02 4.007850587368011475e-02 4.448163509368896484e-02
1.979249715805053711e-02 2.893834747374057770e-02 -2.381388284265995026e-02
3.008815646171569824e-02 3.674735128879547119e-02 -2.387474663555622101e-02
-1.950994133949279785e-02 -8.476020768284797668e-03 1.948861405253410339e-03
5.273401737213134766e-03 -2.454687841236591339e-02 -2.810581959784030914e-02
9.836554527282714844e-04 -1.557033695280551910e-02 -4.829482734203338623e-02
-2.600005269050598145e-02 2.229120582342147827e-04 1.803775690495967865e-02
-2.677738666534423828e-04 -1.016633398830890656e-02 -6.303019821643829346e-02
-1.340350508689880371e-02 1.532120071351528168e-02 -4.465935379266738892e-02
2.314257621765136719e-02 5.552200600504875183e-03 6.918419152498245239e-02
1.209557056427001953e-03 -2.283531613647937775e-02 -2.278178371489048004e-02
-1.969516277313232422e-02 -5.799980834126472473e-03 6.263067945837974548e-03
1.854231953620910645e-02 7.219573482871055603e-03 6.869399547576904297e-02
-1.021897792816162109e-02 1.391412131488323212e-02 -5.845127254724502563e-02
2.300685644149780273e-02 -1.931878365576267242e-02 -3.976000100374221802e-02
9.510338306427001953e-03 2.485949359834194183e-02 4.025257378816604614e-02
-2.761465311050415039e-02 1.003050617873668671e-02 -5.465108156204223633e-02
-1.249670982360839844e-03 -1.269043423235416412e-02 1.774427108466625214e-02
-3.772109746932983398e-03 1.517583243548870087e-02 -1.835324801504611969e-02
3.029736876487731934e-02 3.639291971921920776e-02 -2.446445263922214508e-02
-3.434628248214721680e-03 1.099526695907115936e-02 -6.247618794441223145e-02
2.571880817413330078e-02 -2.982574887573719025e-02 -4.965434968471527100e-02
4.119336605072021484e-03 -2.434316463768482208e-02 -2.917487360537052155e-02
-1.151141524314880371e-02 1.434125192463397980e-02 -3.515237569808959961e-02
-2.507707476615905762e-02 2.042649313807487488e-03 -3.702287375926971436e-02
-8.481442928314208984e-03 -2.366731502115726471e-02 -1.633106358349323273e-02
-1.275601983070373535e-02 -6.874511018395423889e-03 1.662815175950527191e-02
-9.968876838684082031e-05 7.319642230868339539e-03 -5.031858384609222412e-02
-2.837374806404113770e-02 9.947108104825019836e-03 -5.854205787181854248e-02
5.629658699035644531e-05 2.008512429893016815e-02 3.296700119972229004e-02
-4.728138446807861328e-03 1.530941389501094818e-02 -1.886112429201602936e-02
-9.587079286575317383e-03 -1.396282203495502472e-02 -3.710141032934188843e-02
1.834550499916076660e-02 3.164862841367721558e-02 -2.385904081165790558e-02
-2.907595038414001465e-02 -1.221079565584659576e-02 -4.875186830759048462e-02
-1.961717009544372559e-02 -5.301291123032569885e-03 8.025242015719413757e-03
-3.238081932067871094e-03 1.667560450732707977e-02 -7.272439077496528625e-03
1.869294047355651855e-02 -3.815855085849761963e-02 -6.503561511635780334e-03
1.889330148696899414e-02 5.616074427962303162e-03 -3.669308125972747803e-02
-1.595935225486755371e-02 1.484485529363155365e-02 -5.880566686391830444e-02
1.573559641838073730e-02 -3.685099631547927856e-02 -1.793299056589603424e-02
-6.226837635040283203e-03 1.520030759274959564e-02 -1.966521330177783966e-02
1.780885457992553711e-02 -4.077026247978210449e-02 -8.623505011200904846e-03
-2.438971400260925293e-02 7.482169196009635925e-03 -1.477022655308246613e-02
1.610130071640014648e-03 -1.244636811316013336e-02 -4.102348536252975464e-02
-7.843017578125000000e-03 -2.390371449291706085e-02 -1.430395431816577911e-02
-2.761617302894592285e-02 1.112687401473522186e-02 -5.200709402561187744e-02
1.896685361862182617e-02 -3.523781150579452515e-02 -7.191063836216926575e-03
2.688130736351013184e-02 3.803061693906784058e-02 -2.610861696302890778e-02
-6.011068820953369141e-03 -2.151622064411640167e-02 -2.524467185139656067e-03
-6.590127944946289062e-03 -2.234631218016147614e-02 -2.730416133999824524e-03
1.576057076454162598e-02 -3.253117203712463379e-02 -1.159329153597354889e-02
-5.819231271743774414e-03 -2.455493994057178497e-02 -2.332178689539432526e-02
1.543679833412170410e-02 -3.244982659816741943e-02 -1.252578385174274445e-02
3.042060136795043945e-02 3.821656107902526855e-02 -2.383469976484775543e-02
5.247354507446289062e-03 2.590699121356010437e-03 -4.829801619052886963e-02
-1.690983772277832031e-03 -1.888375915586948395e-02 -2.395489253103733063e-02
-2.438125014305114746e-02 7.314441725611686707e-03 -1.499938406050205231e-02
3.138989210128784180e-03 5.811454728245735168e-03 -5.443312227725982666e-02
1.453652977943420410e-02 -2.980333752930164337e-02 -2.650314942002296448e-03
8.863449096679687500e-03 -1.560701616108417511e-02 3.044831566512584686e-02
-1.840531826019287109e-03 -1.550334133207798004e-02 -5.892949551343917847e-02
-1.240307092666625977e-02 -7.090734317898750305e-03 -1.733631826937198639e-02
-3.669440746307373047e-03 1.650035940110683441e-02 3.677074611186981201e-02
-3.855586051940917969e-03 1.687027327716350555e-02 3.646489232778549194e-02
-2.055898308753967285e-02 1.367812789976596832e-02 -5.580242723226547241e-02
-1.426944136619567871e-02 -1.081745512783527374e-02 -2.981208451092243195e-02
1.170578598976135254e-02 -2.787476219236850739e-02 7.144918665289878845e-03
-6.130248308181762695e-03 -1.464323140680789948e-02 3.230584785342216492e-03
1.756495237350463867e-02 2.857452444732189178e-02 4.714614897966384888e-02
-1.748725771903991699e-02 -4.622805863618850708e-04 -1.858459785580635071e-03
6.448030471801757812e-03 1.561867259442806244e-02 -1.000137813389301300e-02
2.217030525207519531e-02 2.802682481706142426e-02 5.249527096748352051e-02
1.803806424140930176e-02 1.077177189290523529e-02 3.430724143981933594e-02
4.379063844680786133e-03 -8.114332333207130432e-03 -5.095388740301132202e-02
1.908060908317565918e-02 -1.467046327888965607e-02 -4.522582888603210449e-02
-1.590549945831298828e-04 -3.460680693387985229e-02 -2.044935710728168488e-02
-7.815420627593994141e-03 -2.439767308533191681e-02 -1.461208146065473557e-02
-5.749821662902832031e-03 -2.475658245384693146e-02 -2.248173393309116364e-02
1.919355988502502441e-02 1.564845256507396698e-02 6.813555210828781128e-02
-3.075566887855529785e-02 1.323236152529716492e-03 -4.707785695791244507e-02
1.837337017059326172e-02 1.187266968190670013e-02 3.377401083707809448e-02
1.702785491943359375e-03 -2.353286370635032654e-03 -5.929637700319290161e-02
3.283977508544921875e-03 4.569904878735542297e-03 -4.921153187751770020e-02
1.087406277656555176e-02 -2.693885751068592072e-02 7.057396695017814636e-03
4.786282777786254883e-03 -1.654800213873386383e-02 6.024306640028953552e-03
3.567039966583251953e-04 -1.323078759014606476e-02 -4.171096533536911011e-02
-1.444637775421142578e-03 -1.117328740656375885e-02 -3.133442252874374390e-02
-9.544640779495239258e-03 -8.873725309967994690e-03 -2.891202457249164581e-02
1.665416359901428223e-02 -3.670379519462585449e-02 -1.723649539053440094e-02
-2.327993512153625488e-02 1.235191337764263153e-02 -5.114089697599411011e-02
-2.979427576065063477e-02 -2.378391101956367493e-03 -6.107123196125030518e-02
