1.018090248107910156e+00 -1.715112626552581787e-01 3.515579700469970703e-01
9.944064617156982422e-01 -2.449826896190643311e-01 3.401103615760803223e-01
9.611269831657409668e-01 -3.564457893371582031e-01 3.489507138729095459e-01
1.110018372535705566e+00 -1.767583340406417847e-01 3.483652472496032715e-01
1.111707687377929688e+00 -6.327828019857406616e-02 7.269468903541564941e-01
1.091346979141235352e+00 5.423282831907272339e-02 3.054617643356323242e-01
9.285846352577209473e-01 -3.671008050441741943e-01 3.814130723476409912e-01
1.024900555610656738e+00 -1.016665101051330566e-01 3.407409787178039551e-01
1.184009313583374023e+00 1.955440826714038849e-02 8.803447484970092773e-01
1.158899068832397461e+00 -1.161429584026336670e-01 3.020372390747070312e-01
1.039839863777160645e+00 -4.973605275154113770e-02 3.142184019088745117e-01
1.035973787307739258e+00 -8.537624031305313110e-02 3.112378418445587158e-01
1.192940592765808105e+00 -5.625444650650024414e-02 3.175394833087921143e-01
1.037204980850219727e+00 -7.818654179573059082e-02 3.101530075073242188e-01
9.892467856407165527e-01 -3.867222070693969727e-01 3.572605848312377930e-01
1.035934805870056152e+00 -6.183421239256858826e-02 3.129034638404846191e-01
9.046949148178100586e-01 -5.450768470764160156e-01 1.053354024887084961e+00
1.065931797027587891e+00 3.019329160451889038e-03 3.259004652500152588e-01
8.471816778182983398e-01 -6.267374753952026367e-01 9.329144954681396484e-01
9.619334936141967773e-01 -2.935506403446197510e-01 3.372562527656555176e-01
1.040879726409912109e+00 -5.069418251514434814e-02 3.325847387313842773e-01
1.188879609107971191e+00 2.580461651086807251e-02 8.896234035491943359e-01
1.023104906082153320e+00 -1.115046739578247070e-01 3.469411432743072510e-01
8.868972063064575195e-01 -6.096724867820739746e-01 8.933699131011962891e-01
1.162159681320190430e+00 -9.917244315147399902e-02 3.019579350948333740e-01
1.110005378723144531e+00 -6.280952692031860352e-02 6.467453241348266602e-01
1.093935132026672363e+00 -1.971754580736160278e-01 3.523820042610168457e-01
1.194128870964050293e+00 -3.358302637934684753e-03 9.149983525276184082e-01
1.215290546417236328e+00 -4.326868429780006409e-02 3.136661052703857422e-01
1.157104849815368652e+00 -3.209981694817543030e-02 8.043811321258544922e-01
1.062740564346313477e+00 1.311674062162637711e-02 3.232854902744293213e-01
1.113368749618530273e+00 -1.092145144939422607e-01 7.794871330261230469e-01
1.002047657966613770e+00 -2.110291123390197754e-01 3.264092206954956055e-01
1.041595458984375000e+00 -4.600769281387329102e-02 3.081752657890319824e-01
1.195178389549255371e+00 -7.521038502454757690e-02 3.183638155460357666e-01
1.116993427276611328e+00 -9.262503683567047119e-02 7.120594978332519531e-01
1.208664774894714355e+00 -5.266590416431427002e-02 3.151868283748626709e-01
1.175064921379089355e+00 -4.687979072332382202e-02 4.759119153022766113e-01
1.030279397964477539e+00 -7.941952347755432129e-02 3.165061473846435547e-01
1.116451501846313477e+00 -6.029191240668296814e-02 7.335860133171081543e-01
1.142263054847717285e+00 -1.444033533334732056e-01 3.077130913734436035e-01
1.127740144729614258e+00 -1.547018587589263916e-01 3.098705708980560303e-01
1.113452672958374023e+00 -1.761082261800765991e-01 3.494040668010711670e-01
9.596242904663085938e-01 -3.590095341205596924e-01 3.501880764961242676e-01
1.187526106834411621e+00 1.297066360712051392e-02 8.757307529449462891e-01
8.478052020072937012e-01 -5.818350315093994141e-01 9.114024043083190918e-01
1.013626456260681152e+00 -3.508258461952209473e-01 3.693660497665405273e-01
1.175326466560363770e+00 -5.870076129212975502e-04 8.513989448547363281e-01
1.029173612594604492e+00 -9.967236220836639404e-02 3.130271136760711670e-01
8.943548798561096191e-01 -6.101096272468566895e-01 8.859824538230895996e-01
1.174310564994812012e+00 -6.341036409139633179e-02 5.278418064117431641e-01
1.151223421096801758e+00 -1.322534233331680298e-01 3.056927919387817383e-01
1.044303894042968750e+00 -3.534007072448730469e-02 3.109245598316192627e-01
1.029883265495300293e+00 -8.875546604394912720e-02 3.120486736297607422e-01
1.084444165229797363e+00 -2.248610109090805054e-01 3.207828998565673828e-01
9.283436536788940430e-01 -5.220983028411865234e-01 1.035658240318298340e+00
1.179526567459106445e+00 -9.473293088376522064e-03 9.217205047607421875e-01
1.001968979835510254e+00 -1.733621209859848022e-01 3.225039839744567871e-01
1.165163516998291016e+00 -4.978122189640998840e-02 5.189924836158752441e-01
1.147905349731445312e+00 -1.200488805770874023e-01 3.317397832870483398e-01
9.909357428550720215e-01 -2.066166847944259644e-01 3.290908932685852051e-01
1.107684016227722168e+00 -6.251771748065948486e-02 6.492134332656860352e-01
1.103544592857360840e+00 -2.036370784044265747e-01 3.445969521999359131e-01
1.176791906356811523e+00 -6.264145672321319580e-02 5.155805349349975586e-01
1.113904714584350586e+00 -1.731629371643066406e-01 3.483147621154785156e-01
1.142225146293640137e+00 -1.347448527812957764e-01 3.376781642436981201e-01
1.116421222686767578e+00 -1.855179667472839355e-01 3.434886932373046875e-01
1.161200046539306641e+00 -9.888799488544464111e-02 3.251027464866638184e-01
1.060432076454162598e+00 1.041713077574968338e-02 3.051330447196960449e-01
1.088329553604125977e+00 -2.041606456041336060e-01 3.529797792434692383e-01
1.184509754180908203e+00 1.555782556533813477e-02 8.752047419548034668e-01
1.168614625930786133e+00 -1.407359610311686993e-03 9.216850996017456055e-01
1.053962588310241699e+00 -3.136228024959564209e-02 3.329071104526519775e-01
1.168406963348388672e+00 -5.438786000013351440e-02 4.920659065246582031e-01
1.159539461135864258e+00 -1.029890105128288269e-01 3.272021412849426270e-01
1.125129342079162598e+00 -1.732126474380493164e-01 3.417445421218872070e-01
9.632193446159362793e-01 -2.830878794193267822e-01 3.502490520477294922e-01
9.461498260498046875e-01 -3.222323656082153320e-01 3.449257016181945801e-01
9.619583487510681152e-01 -3.855318427085876465e-01 3.801172375679016113e-01
1.023736834526062012e+00 -1.519169509410858154e-01 3.498367667198181152e-01
9.977693557739257812e-01 -3.843974471092224121e-01 3.915714025497436523e-01
1.167955517768859863e+00 -1.036236956715583801e-01 2.996304035186767578e-01
1.211262583732604980e+00 -4.447834938764572144e-02 2.947608828544616699e-01
8.507987260818481445e-01 -5.887353420257568359e-01 8.864766359329223633e-01
1.045504212379455566e+00 -6.348605453968048096e-02 3.088200986385345459e-01
1.167216777801513672e+00 -5.414431542158126831e-02 4.974893331527709961e-01
1.139579653739929199e+00 -1.338685154914855957e-01 3.363164961338043213e-01
1.016380429267883301e+00 -3.025924563407897949e-01 3.770447373390197754e-01
1.032332420349121094e+00 -1.187987476587295532e-01 3.470942974090576172e-01
1.071073532104492188e+00 -2.356632798910140991e-01 3.210543394088745117e-01
9.801002740859985352e-01 -3.440524637699127197e-01 3.423348665237426758e-01
1.052252173423767090e+00 -6.038068607449531555e-02 3.330838382244110107e-01
1.152995347976684570e+00 -1.108717024326324463e-01 3.049120903015136719e-01
1.113073706626892090e+00 -4.228164628148078918e-02 6.415511369705200195e-01
1.146296501159667969e+00 -8.785263448953628540e-02 7.198466062545776367e-01
1.155677795410156250e+00 -6.060877814888954163e-02 5.430181026458740234e-01
1.200134754180908203e+00 -6.572802364826202393e-02 2.999431192874908447e-01
1.014592170715332031e+00 -3.521880209445953369e-01 3.613674640655517578e-01
1.161028981208801270e+00 -2.938780747354030609e-02 8.108517527580261230e-01
1.202613711357116699e+00 -3.213567286729812622e-02 3.049282133579254150e-01
1.029447555541992188e+00 -8.824731409549713135e-02 3.403427004814147949e-01
9.898628592491149902e-01 -2.585600614547729492e-01 3.473996520042419434e-01
9.380000829696655273e-01 -3.483607172966003418e-01 3.915209174156188965e-01
1.060666203498840332e+00 -2.593683004379272461e-01 3.694094717502593994e-01
1.002511739730834961e+00 -3.681704998016357422e-01 4.016177952289581299e-01
1.149001002311706543e+00 -8.156685531139373779e-02 6.347137093544006348e-01
9.856554269790649414e-01 -2.274338901042938232e-01 3.556010425090789795e-01
9.494472742080688477e-01 -3.313598036766052246e-01 3.922078013420104980e-01
1.052329659461975098e+00 -1.818457990884780884e-02 3.287724852561950684e-01
9.303566217422485352e-01 -3.493890166282653809e-01 3.530213236808776855e-01
1.067078471183776855e+00 -2.419908344745635986e-01 3.216074705123901367e-01
1.056019186973571777e+00 -2.566150128841400146e-01 3.232586681842803955e-01
1.089987874031066895e+00 -1.990334987640380859e-01 3.495921790599822998e-01
1.166621923446655273e+00 2.693406073376536369e-03 9.195314645767211914e-01
1.023037910461425781e+00 -1.068851947784423828e-01 3.405091762542724609e-01
9.357067346572875977e-01 -3.516501188278198242e-01 3.878066837787628174e-01
9.591280221939086914e-01 -3.670710623264312744e-01 3.817220330238342285e-01
9.357835054397583008e-01 -5.314789414405822754e-01 1.032865881919860840e+00
9.737288355827331543e-01 -2.947991788387298584e-01 3.393449783325195312e-01
1.029868125915527344e+00 -8.230102807283401489e-02 3.134303987026214600e-01
1.054043769836425781e+00 -4.920587688684463501e-02 3.092763423919677734e-01
1.154751896858215332e+00 -5.980342626571655273e-02 5.497301220893859863e-01
1.047346830368041992e+00 -2.993330545723438263e-02 3.288242518901824951e-01
9.339306354522705078e-01 -3.327424228191375732e-01 3.500420153141021729e-01
9.957628846168518066e-01 -2.419569939374923706e-01 3.402327299118041992e-01
1.177662134170532227e+00 -9.389761090278625488e-02 2.983645796775817871e-01
1.151285529136657715e+00 -1.157089471817016602e-01 3.046955466270446777e-01
9.608988761901855469e-01 -2.883828878402709961e-01 3.421291112899780273e-01
1.113638401031494141e+00 -1.891353279352188110e-01 3.444142341613769531e-01
1.042825937271118164e+00 -4.872384667396545410e-02 3.065132498741149902e-01
9.806660413742065430e-01 -2.394683659076690674e-01 3.427610993385314941e-01
1.160059213638305664e+00 -1.247911676764488220e-01 3.252424001693725586e-01
1.167352914810180664e+00 -1.125029921531677246e-01 3.055477142333984375e-01
1.031982541084289551e+00 -7.538954913616180420e-02 3.125023841857910156e-01
9.920869469642639160e-01 -3.854136466979980469e-01 3.551632463932037354e-01
1.207696437835693359e+00 -5.094825476408004761e-02 2.949690222740173340e-01
1.027955889701843262e+00 -9.258911758661270142e-02 3.405610024929046631e-01
1.003132939338684082e+00 -1.966919898986816406e-01 3.228724598884582520e-01
1.145352125167846680e+00 -1.354764699935913086e-01 3.056580126285552979e-01
1.191032886505126953e+00 -7.956880331039428711e-02 3.207881450653076172e-01
1.156295418739318848e+00 -6.071969121694564819e-02 5.398668646812438965e-01
1.173702716827392578e+00 -8.249403536319732666e-02 3.225892484188079834e-01
1.018661499023437500e+00 -1.646773666143417358e-01 3.538411557674407959e-01
9.753546714782714844e-01 -3.754104971885681152e-01 3.803043365478515625e-01
9.093200564384460449e-01 -5.319617986679077148e-01 9.704699516296386719e-01
1.190989494323730469e+00 2.335616573691368103e-02 8.878417015075683594e-01
1.018049001693725586e+00 -1.242089048027992249e-01 3.456157445907592773e-01
1.037937283515930176e+00 -8.219743520021438599e-02 3.110591173171997070e-01
9.992281198501586914e-01 -3.818337917327880859e-01 3.545567393302917480e-01
9.940698742866516113e-01 -3.826844692230224609e-01 3.523698449134826660e-01
9.629546403884887695e-01 -3.594283163547515869e-01 3.495076894760131836e-01
1.078990936279296875e+00 4.725412651896476746e-02 3.250168263912200928e-01
1.034335136413574219e+00 -7.070224732160568237e-02 3.349578678607940674e-01
8.455179333686828613e-01 -6.220617294311523438e-01 9.224855303764343262e-01
9.196550846099853516e-01 -5.361579060554504395e-01 1.045163273811340332e+00
1.017698168754577637e+00 -1.290339976549148560e-01 3.502745330333709717e-01
1.111051201820373535e+00 -6.408286094665527344e-02 7.240461111068725586e-01
1.168154597282409668e+00 -5.249333009123802185e-02 4.950351715087890625e-01
1.004147052764892578e+00 -2.076670527458190918e-01 3.269197344779968262e-01
9.228578805923461914e-01 -5.478731989860534668e-01 1.046945929527282715e+00
9.248968362808227539e-01 -5.478327274322509766e-01 1.043496370315551758e+00
1.124180197715759277e+00 -4.907266423106193542e-02 6.401029825210571289e-01
1.048110008239746094e+00 -2.658271044492721558e-02 3.068266808986663818e-01
1.034115791320800781e+00 -6.792784482240676880e-02 3.124275207519531250e-01
1.174195289611816406e+00 -7.655670493841171265e-02 3.026127219200134277e-01
1.188832044601440430e+00 -8.167596161365509033e-02 3.218880891799926758e-01
1.094019174575805664e+00 5.578350275754928589e-02 3.079362213611602783e-01
9.884355068206787109e-01 -3.846068382263183594e-01 3.544410467147827148e-01
8.389462232589721680e-01 -6.160911917686462402e-01 9.281841516494750977e-01
1.123893499374389648e+00 -9.855777025222778320e-02 7.144445180892944336e-01
9.943102002143859863e-01 -3.664597272872924805e-01 3.915298283100128174e-01
9.081404209136962891e-01 -5.344587564468383789e-01 1.049137830734252930e+00
1.043250322341918945e+00 -2.770787477493286133e-01 3.258552253246307373e-01
8.767616748809814453e-01 -6.317484378814697266e-01 9.323886036872863770e-01
1.049582362174987793e+00 -2.330704219639301300e-02 3.058814108371734619e-01
9.953020811080932617e-01 -1.928801536560058594e-01 3.260090351104736328e-01
8.726031780242919922e-01 -6.330637335777282715e-01 9.327532649040222168e-01
1.065144777297973633e+00 -1.693892106413841248e-02 3.050058186054229736e-01
9.954725503921508789e-01 -3.859454393386840820e-01 3.568928837776184082e-01
1.142859339714050293e+00 -1.292306184768676758e-01 3.066470623016357422e-01
1.169495582580566406e+00 -1.068285554647445679e-01 3.012512326240539551e-01
1.077405452728271484e+00 1.602329127490520477e-02 3.219418823719024658e-01
1.160627365112304688e+00 -9.702104330062866211e-02 3.043300211429595947e-01
1.023671984672546387e+00 -1.042114868760108948e-01 3.389187455177307129e-01
8.831647038459777832e-01 -6.290375590324401855e-01 9.294524192810058594e-01
1.052451372146606445e+00 -1.355062611401081085e-02 3.064209818840026855e-01
1.033845901489257812e+00 -1.146482825279235840e-01 3.459146320819854736e-01
1.000506997108459473e+00 -3.808463215827941895e-01 3.928515911102294922e-01
1.170273542404174805e+00 -9.551538154482841492e-03 8.382760286331176758e-01
1.174566745758056641e+00 6.421049125492572784e-03 8.616948723793029785e-01
1.156094312667846680e+00 -2.665526978671550751e-02 8.117653131484985352e-01
1.137035250663757324e+00 -1.568410843610763550e-01 3.345527648925781250e-01
9.788978099822998047e-01 -3.410251140594482422e-01 3.420966267585754395e-01
1.033890008926391602e+00 -7.866308838129043579e-02 3.103739023208618164e-01
1.055820226669311523e+00 -5.606709513813257217e-03 3.261922001838684082e-01
1.070202231407165527e+00 2.947418484836816788e-03 3.246901631355285645e-01
1.009086370468139648e+00 -1.517255306243896484e-01 3.203521668910980225e-01
1.113000750541687012e+00 -3.606759011745452881e-02 5.434235334396362305e-01
1.028394699096679688e+00 -1.318964362144470215e-01 3.495209813117980957e-01
1.175955295562744141e+00 2.269890159368515015e-02 9.166988134384155273e-01
1.033996343612670898e+00 -9.599719196557998657e-02 3.127685487270355225e-01
1.010422468185424805e+00 -1.630842089653015137e-01 3.197508752346038818e-01
1.150115609169006348e+00 -8.231979608535766602e-02 7.289227247238159180e-01
1.055415987968444824e+00 -1.898581162095069885e-02 3.304305076599121094e-01
1.061786055564880371e+00 -2.952941134572029114e-02 3.288383781909942627e-01
1.055318832397460938e+00 -5.101615190505981445e-02 3.311498165130615234e-01
1.167796492576599121e+00 -6.863442063331604004e-02 5.452858805656433105e-01
8.452229499816894531e-01 -6.173240542411804199e-01 9.212549924850463867e-01
1.044340014457702637e+00 -3.815180808305740356e-02 3.283240199089050293e-01
1.147595405578613281e+00 -1.394974738359451294e-01 3.086942732334136963e-01
8.515754938125610352e-01 -6.325723528861999512e-01 9.306615591049194336e-01
8.439176082611083984e-01 -6.249396204948425293e-01 9.306350350379943848e-01
8.851813077926635742e-01 -6.281735897064208984e-01 9.260925054550170898e-01
9.381109476089477539e-01 -5.227992534637451172e-01 1.035290598869323730e+00
1.149860620498657227e+00 -8.354493975639343262e-02 7.200455665588378906e-01
1.213275790214538574e+00 -4.568920284509658813e-02 3.139433860778808594e-01
1.048637628555297852e+00 -2.684420049190521240e-01 3.246969878673553467e-01
1.005261778831481934e+00 -2.029851078987121582e-01 3.258463144302368164e-01
1.134410142898559570e+00 -1.453098356723785400e-01 3.084383606910705566e-01
1.211455225944519043e+00 -1.393494196236133575e-02 2.972303032875061035e-01
1.014388799667358398e+00 -1.349597424268722534e-01 3.454260826110839844e-01
1.008982181549072266e+00 -1.577230840921401978e-01 3.197273910045623779e-01
1.059320688247680664e+00 -2.579520940780639648e-01 3.239989578723907471e-01
1.116575717926025391e+00 -1.025349348783493042e-01 7.011236548423767090e-01
1.127270817756652832e+00 -6.531656533479690552e-02 7.308751344680786133e-01
1.024924516677856445e+00 -1.468403935432434082e-01 3.500045537948608398e-01
8.972496390342712402e-01 -6.072947978973388672e-01 9.049097895622253418e-01
9.299864172935485840e-01 -3.575703501701354980e-01 3.600626289844512939e-01
1.027525782585144043e+00 -8.867118507623672485e-02 3.156800270080566406e-01
1.075050473213195801e+00 -2.425359785556793213e-01 3.642238974571228027e-01
1.107234001159667969e+00 -4.720521345734596252e-02 6.436608433723449707e-01
1.063625097274780273e+00 -2.163633331656455994e-02 3.282482922077178955e-01
1.001216650009155273e+00 -3.730780482292175293e-01 4.003756940364837646e-01
8.946478366851806641e-01 -6.135946512222290039e-01 9.200478792190551758e-01
1.141286015510559082e+00 -7.739476114511489868e-02 6.331528425216674805e-01
1.167142629623413086e+00 -1.268621906638145447e-02 8.327640295028686523e-01
1.093330860137939453e+00 4.380559176206588745e-02 3.075589537620544434e-01
1.099311828613281250e+00 -2.638117223978042603e-02 5.413894057273864746e-01
1.178475737571716309e+00 -9.583784639835357666e-02 3.010588884353637695e-01
1.043599843978881836e+00 -4.101444780826568604e-02 3.071996271610260010e-01
1.209697127342224121e+00 -4.903239756822586060e-02 2.967725396156311035e-01
1.016625404357910156e+00 -3.037556409835815430e-01 3.798992633819580078e-01
8.913028240203857422e-01 -5.282840728759765625e-01 1.045581579208374023e+00
1.040454864501953125e+00 -2.888685464859008789e-01 3.278840184211730957e-01
1.152836561203002930e+00 -3.366819024085998535e-02 8.007813096046447754e-01
1.042255878448486328e+00 -4.216805845499038696e-02 3.098840713500976562e-01
1.174411296844482422e+00 -6.076861545443534851e-02 5.347188711166381836e-01
1.180437088012695312e+00 8.765902370214462280e-03 8.651061058044433594e-01
1.082904458045959473e+00 -2.082891911268234253e-01 3.503433167934417725e-01
1.106476902961730957e+00 -1.945677250623703003e-01 3.165051937103271484e-01
1.167188882827758789e+00 1.096691563725471497e-02 9.130415916442871094e-01
1.000833988189697266e+00 -1.764361560344696045e-01 3.231406211853027344e-01
1.174463748931884766e+00 -8.580835908651351929e-02 3.250177204608917236e-01
1.116275668144226074e+00 -6.564860045909881592e-02 6.395933032035827637e-01
9.976754188537597656e-01 -3.778566718101501465e-01 3.493586182594299316e-01
1.140583276748657227e+00 -1.329652816057205200e-01 3.070205450057983398e-01
1.049305200576782227e+00 -2.716017365455627441e-01 3.253864943981170654e-01
1.148159265518188477e+00 -5.301332101225852966e-02 7.768091559410095215e-01
8.422618508338928223e-01 -6.246840953826904297e-01 9.249275922775268555e-01
9.885276556015014648e-01 -2.143501043319702148e-01 3.348518013954162598e-01
8.572229146957397461e-01 -5.909528732299804688e-01 9.033345580101013184e-01
1.164485454559326172e+00 -1.142070218920707703e-01 3.027543723583221436e-01
1.061787128448486328e+00 -2.486331164836883545e-01 3.681124150753021240e-01
1.163502693176269531e+00 -9.662892669439315796e-02 3.253376781940460205e-01
1.178840279579162598e+00 2.423710748553276062e-02 9.029896259307861328e-01
9.897085428237915039e-01 -2.103241980075836182e-01 3.336171507835388184e-01
1.071376323699951172e+00 -2.281675934791564941e-01 3.606830537319183350e-01
1.061221837997436523e+00 -2.456137686967849731e-01 3.225980401039123535e-01
1.149146914482116699e+00 -5.117260292172431946e-02 7.794095873832702637e-01
1.001031994819641113e+00 -1.777569651603698730e-01 3.489683270454406738e-01
9.770704507827758789e-01 -2.893669605255126953e-01 3.485325872898101807e-01
1.192179322242736816e+00 -7.429472357034683228e-02 3.211263716220855713e-01
1.153264164924621582e+00 -1.343121826648712158e-01 3.283642232418060303e-01
1.140883207321166992e+00 -7.087825983762741089e-02 7.276619076728820801e-01
1.181338071823120117e+00 -9.256157279014587402e-02 3.021807670593261719e-01
1.108823776245117188e+00 -1.743884384632110596e-01 3.456414937973022461e-01
8.468103408813476562e-01 -5.846953392028808594e-01 8.860772848129272461e-01
1.065542578697204590e+00 -2.550151944160461426e-01 3.676269650459289551e-01
1.181113481521606445e+00 -5.771591514348983765e-02 5.067744255065917969e-01
8.463373780250549316e-01 -6.116152405738830566e-01 9.198670387268066406e-01
1.028899788856506348e+00 -1.070994064211845398e-01 3.139548897743225098e-01
1.116983771324157715e+00 -4.357726871967315674e-02 6.407747268676757812e-01
1.143721342086791992e+00 -1.393096745014190674e-01 3.063405752182006836e-01
1.141262173652648926e+00 -1.413087993860244751e-01 3.067519068717956543e-01
1.031637668609619141e+00 -1.270268857479095459e-01 3.457753360271453857e-01
1.056857585906982422e+00 -1.600622013211250305e-02 3.298290967941284180e-01
1.045651674270629883e+00 -7.047583162784576416e-02 3.107549846172332764e-01
1.170908689498901367e+00 -8.729881793260574341e-02 3.243033289909362793e-01
1.169712543487548828e+00 -6.613072007894515991e-02 5.451806187629699707e-01
1.041123747825622559e+00 -6.063445284962654114e-02 3.076317012310028076e-01
9.381986856460571289e-01 -5.241993069648742676e-01 1.032513856887817383e+00
1.053498983383178711e+00 -5.405898392200469971e-02 3.106971681118011475e-01
1.158708691596984863e+00 -6.784042716026306152e-02 6.493731737136840820e-01
1.163041472434997559e+00 -1.173081248998641968e-01 3.040830194950103760e-01
1.163236379623413086e+00 -3.031782433390617371e-02 8.139879703521728516e-01
1.063842058181762695e+00 -2.427667677402496338e-01 3.221313357353210449e-01
1.119173049926757812e+00 -4.536078497767448425e-02 6.386411190032958984e-01
1.045453310012817383e+00 -7.847233116626739502e-02 3.379351794719696045e-01
1.025803208351135254e+00 -1.046141684055328369e-01 3.138751685619354248e-01
1.165363907814025879e+00 -1.153010055422782898e-01 3.059807121753692627e-01
1.056034803390502930e+00 -2.639058232307434082e-01 3.708772659301757812e-01
1.125061273574829102e+00 -1.602670848369598389e-01 3.105076551437377930e-01
1.040351867675781250e+00 -5.045632272958755493e-02 3.295399546623229980e-01
1.066509723663330078e+00 -2.511743307113647461e-01 3.243305683135986328e-01
1.166743755340576172e+00 -4.899473860859870911e-02 5.122485756874084473e-01
1.004680395126342773e+00 -3.042122423648834229e-01 3.846511840820312500e-01
1.155598640441894531e+00 -6.460939347743988037e-02 6.479898691177368164e-01
1.119352459907531738e+00 -1.700471043586730957e-01 3.117899596691131592e-01
1.096527695655822754e+00 -2.112768776714801788e-02 5.238605737686157227e-01
1.155674457550048828e+00 -1.041735410690307617e-01 3.054183125495910645e-01
1.105080962181091309e+00 -5.271904915571212769e-02 6.460717320442199707e-01
9.932212233543395996e-01 -1.989487558603286743e-01 3.283951282501220703e-01
1.045811414718627930e+00 -3.448998928070068359e-02 3.291960358619689941e-01
1.178940296173095703e+00 -6.101245805621147156e-02 5.088329315185546875e-01
1.128078579902648926e+00 -6.761978566646575928e-02 7.329313158988952637e-01
1.159240722656250000e+00 -6.883904337882995605e-02 6.464509963989257812e-01
1.162546157836914062e+00 -1.032281070947647095e-01 3.008922040462493896e-01
1.050407886505126953e+00 -5.805181339383125305e-02 3.096405267715454102e-01
1.170233368873596191e+00 -5.121138319373130798e-02 4.873815178871154785e-01
1.180791616439819336e+00 2.492636628448963165e-02 8.976885080337524414e-01
1.137073516845703125e+00 -1.489385664463043213e-01 3.080793619155883789e-01
9.391301870346069336e-01 -3.456396758556365967e-01 3.930236101150512695e-01
1.055628299713134766e+00 -4.777698963880538940e-02 3.320168256759643555e-01
1.122422337532043457e+00 -1.695804446935653687e-01 3.115770518779754639e-01
1.003637552261352539e+00 -1.836362779140472412e-01 3.213726580142974854e-01
1.030747413635253906e+00 -7.915101945400238037e-02 3.134644627571105957e-01
1.184972286224365234e+00 6.248633377254009247e-03 9.128684401512145996e-01
1.069222688674926758e+00 3.212302550673484802e-02 3.198311328887939453e-01
1.013910651206970215e+00 -3.526220321655273438e-01 3.583553731441497803e-01
1.163933396339416504e+00 -2.322982996702194214e-02 8.193069696426391602e-01
8.395595550537109375e-01 -6.003516316413879395e-01 9.261283278465270996e-01
1.016175270080566406e+00 -3.512030243873596191e-01 3.798874616622924805e-01
9.189499020576477051e-01 -5.216708779335021973e-01 9.838731884956359863e-01
1.155221223831176758e+00 -6.314346194267272949e-02 6.351095438003540039e-01
9.284681677818298340e-01 -5.449846982955932617e-01 1.042413711547851562e+00
9.610624909400939941e-01 -2.877990603446960449e-01 3.457190990447998047e-01
1.049583673477172852e+00 -6.382140517234802246e-02 3.109935522079467773e-01
1.050164818763732910e+00 -6.702609360218048096e-02 3.340641856193542480e-01
1.068662166595458984e+00 -7.397843059152364731e-03 3.255094587802886963e-01
1.142841100692749023e+00 -1.468520909547805786e-01 3.118494451045989990e-01
1.066344738006591797e+00 2.076424472033977509e-02 3.005993068218231201e-01
1.025313019752502441e+00 -1.232456564903259277e-01 3.159842491149902344e-01
1.130528926849365234e+00 -7.248801738023757935e-02 7.369675636291503906e-01
1.140530228614807129e+00 -1.268713474273681641e-01 3.084356784820556641e-01
1.066257238388061523e+00 -2.376741915941238403e-01 3.649682998657226562e-01
1.068280935287475586e+00 -2.389368414878845215e-01 3.214532434940338135e-01
1.050546646118164062e+00 -2.719294428825378418e-01 3.726074397563934326e-01
1.159498453140258789e+00 -5.362446606159210205e-02 5.408697128295898438e-01
9.304693341255187988e-01 -3.691108822822570801e-01 3.829877972602844238e-01
1.062092065811157227e+00 -2.564911842346191406e-01 3.243741989135742188e-01
9.266833066940307617e-01 -3.527333736419677734e-01 3.589838147163391113e-01
9.714121818542480469e-01 -2.655879855155944824e-01 3.577246665954589844e-01
1.021295428276062012e+00 -1.170565038919448853e-01 3.155294656753540039e-01
1.114820361137390137e+00 -1.878275424242019653e-01 3.414881825447082520e-01
1.187514543533325195e+00 -8.298824727535247803e-02 2.993549704551696777e-01
9.999014139175415039e-01 -1.820879876613616943e-01 3.510760366916656494e-01
1.160127639770507812e+00 -2.675248682498931885e-02 8.122894763946533203e-01
8.487015366554260254e-01 -5.799983143806457520e-01 9.090550541877746582e-01
1.022524237632751465e+00 -1.072685867547988892e-01 3.160046935081481934e-01
1.145491242408752441e+00 -6.023125723004341125e-02 7.691955566406250000e-01
1.027950286865234375e+00 -9.095908701419830322e-02 3.379012644290924072e-01
1.155981659889221191e+00 -7.860630750656127930e-02 6.433128118515014648e-01
1.095144391059875488e+00 -1.793171279132366180e-02 5.138309001922607422e-01
1.132870674133300781e+00 -1.481570750474929810e-01 3.087332248687744141e-01
1.127397298812866211e+00 -1.577861607074737549e-01 3.099506199359893799e-01
1.064938664436340332e+00 1.772923395037651062e-02 3.007547259330749512e-01
1.123702287673950195e+00 -1.538610905408859253e-01 3.402833640575408936e-01
1.104357957839965820e+00 -5.140965431928634644e-02 6.390969753265380859e-01
1.149482011795043945e+00 -4.692761972546577454e-02 7.831043004989624023e-01
1.006831407546997070e+00 -3.561405539512634277e-01 3.996969759464263916e-01
1.074350237846374512e+00 1.266193483024835587e-02 3.231056332588195801e-01
1.156465530395507812e+00 -1.181551218032836914e-01 3.026209473609924316e-01
9.524164795875549316e-01 -3.220208883285522461e-01 3.657062053680419922e-01
1.134551525115966797e+00 -1.603801101446151733e-01 3.345803320407867432e-01
1.087116599082946777e+00 -2.170997560024261475e-01 3.186851739883422852e-01
1.142390251159667969e+00 -4.666510224342346191e-02 7.821080088615417480e-01
1.041630387306213379e+00 -7.088264077901840210e-02 3.094666004180908203e-01
1.144611477851867676e+00 -7.125714421272277832e-02 7.334251999855041504e-01
1.055673599243164062e+00 -3.011158900335431099e-03 3.245377838611602783e-01
9.971699714660644531e-01 -1.890037655830383301e-01 3.242322802543640137e-01
9.668252468109130859e-01 -2.784782648086547852e-01 3.682814240455627441e-01
1.074012279510498047e+00 4.664254374802112579e-03 3.220367729663848877e-01
1.019847154617309570e+00 -1.174225062131881714e-01 3.427087962627410889e-01
1.156463027000427246e+00 -2.864655479788780212e-02 8.086284399032592773e-01
8.969033956527709961e-01 -6.072512865066528320e-01 8.910373449325561523e-01
9.781655669212341309e-01 -2.478415220975875854e-01 3.517154455184936523e-01
1.021454453468322754e+00 -1.132343634963035583e-01 3.434322476387023926e-01
9.598770737648010254e-01 -3.322257101535797119e-01 3.426303267478942871e-01
1.185598969459533691e+00 1.730830036103725433e-02 8.778095841407775879e-01
1.066946506500244141e+00 -2.359829843044281006e-01 3.220118284225463867e-01
1.041747927665710449e+00 -2.798741459846496582e-01 3.262141346931457520e-01
1.111843109130859375e+00 -1.705112159252166748e-01 3.449413180351257324e-01
1.109055280685424805e+00 -1.057705879211425781e-01 6.947834491729736328e-01
9.906465411186218262e-01 -3.886114358901977539e-01 3.601244091987609863e-01
1.173767566680908203e+00 -1.033633202314376831e-01 3.038622140884399414e-01
1.122311830520629883e+00 -1.099952906370162964e-01 7.730535268783569336e-01
1.139902830123901367e+00 -1.501283049583435059e-01 3.105409741401672363e-01
9.621556997299194336e-01 -2.970725893974304199e-01 3.373430967330932617e-01
1.022842407226562500e+00 -1.108962818980216980e-01 3.150004744529724121e-01
9.265075922012329102e-01 -3.495298624038696289e-01 3.568888902664184570e-01
1.159909725189208984e+00 -1.225501149892807007e-01 3.061804175376892090e-01
1.160565018653869629e+00 -6.997514516115188599e-02 6.365288496017456055e-01
9.689356088638305664e-01 -3.371498882770538330e-01 3.577946424484252930e-01
1.076847791671752930e+00 -2.173925936222076416e-01 3.529848456382751465e-01
1.091492652893066406e+00 4.169300571084022522e-02 3.060168623924255371e-01
1.004815697669982910e+00 -1.992738246917724609e-01 3.241977989673614502e-01
9.662960767745971680e-01 -2.820985317230224609e-01 3.766548931598663330e-01
1.016253113746643066e+00 -3.453109562397003174e-01 3.869494497776031494e-01
9.049406051635742188e-01 -5.288875699043273926e-01 9.771997928619384766e-01
1.014511466026306152e+00 -1.353547573089599609e-01 3.183000087738037109e-01
1.055022954940795898e+00 -4.759100265800952911e-03 3.068225681781768799e-01
9.248078465461730957e-01 -3.464770913124084473e-01 3.577505052089691162e-01
1.199891209602355957e+00 -6.946599483489990234e-02 3.157207965850830078e-01
1.012934446334838867e+00 -1.397067010402679443e-01 3.462277352809906006e-01
1.156312942504882812e+00 -1.050571873784065247e-01 3.254776597023010254e-01
1.090600967407226562e+00 4.964028298854827881e-02 3.048389554023742676e-01
1.151873826980590820e+00 -4.057475924491882324e-02 7.915076613426208496e-01
1.105644822120666504e+00 -4.955101013183593750e-02 6.422589421272277832e-01
1.107385754585266113e+00 -4.556436091661453247e-02 6.386058926582336426e-01
1.183619856834411621e+00 -7.111308723688125610e-02 3.212436735630035400e-01
9.958012104034423828e-01 -3.868788182735443115e-01 3.904365301132202148e-01
1.057511925697326660e+00 -4.179935529828071594e-02 3.091675639152526855e-01
9.540811777114868164e-01 -3.218737244606018066e-01 3.805844187736511230e-01
1.158182621002197266e+00 -1.965015940368175507e-02 8.229491710662841797e-01
1.192666530609130859e+00 -7.544736564159393311e-02 2.985697686672210693e-01
1.144077777862548828e+00 -1.326000690460205078e-01 3.058800101280212402e-01
1.065936803817749023e+00 -2.540721893310546875e-01 3.258349895477294922e-01
1.037305355072021484e+00 -6.032228469848632812e-02 3.310023248195648193e-01
1.042104363441467285e+00 -9.047783911228179932e-02 3.395463228225708008e-01
8.472201824188232422e-01 -5.818202495574951172e-01 8.871757984161376953e-01
1.181011676788330078e+00 -2.817817730829119682e-04 8.581480979919433594e-01
1.143917322158813477e+00 -6.063150614500045776e-02 7.656767368316650391e-01
1.070587873458862305e+00 2.848152071237564087e-02 3.032088279724121094e-01
1.047788739204406738e+00 -2.604198753833770752e-01 3.263528943061828613e-01
9.548275470733642578e-01 -3.242477178573608398e-01 3.845067322254180908e-01
1.123666882514953613e+00 -4.948956891894340515e-02 6.370414495468139648e-01
8.854569196701049805e-01 -6.063063144683837891e-01 8.894137144088745117e-01
1.143595576286315918e+00 -4.786045476794242859e-02 7.793024778366088867e-01
1.048963785171508789e+00 -2.547642774879932404e-02 3.288988471031188965e-01
8.558923006057739258e-01 -5.958378911018371582e-01 9.144165515899658203e-01
8.859028816223144531e-01 -6.060864329338073730e-01 8.862818479537963867e-01
1.055017471313476562e+00 -2.669425606727600098e-01 3.712903857231140137e-01
1.207067370414733887e+00 -5.504135042428970337e-02 2.993563711643218994e-01
1.134840130805969238e+00 -1.544768214225769043e-01 3.094631135463714600e-01
1.121314764022827148e+00 -1.104243099689483643e-01 7.766345143318176270e-01
1.099086165428161621e+00 -2.034864425659179688e-01 3.173086047172546387e-01
1.017537832260131836e+00 -1.259185224771499634e-01 3.171893954277038574e-01
1.064638018608093262e+00 -2.380344569683074951e-01 3.227294981479644775e-01
1.174417257308959961e+00 2.008751407265663147e-02 9.189643859863281250e-01
1.053121089935302734e+00 -2.598370313644409180e-01 3.237669467926025391e-01
1.160017967224121094e+00 -2.352003753185272217e-02 8.163725137710571289e-01
1.057364940643310547e+00 -2.635932564735412598e-01 3.251753449440002441e-01
1.146167635917663574e+00 -1.441771984100341797e-01 3.295047879219055176e-01
1.039117813110351562e+00 -5.406571179628372192e-02 3.291239440441131592e-01
1.175498843193054199e+00 -3.627572907134890556e-03 8.482377529144287109e-01
1.093181252479553223e+00 -2.048798799514770508e-01 3.171846866607666016e-01
9.999244213104248047e-01 -3.772670626640319824e-01 3.985387682914733887e-01
1.026168346405029297e+00 -1.014365702867507935e-01 3.136854171752929688e-01
1.035111427307128906e+00 -2.921850383281707764e-01 3.281195163726806641e-01
1.065649509429931641e+00 2.561704069375991821e-02 3.188925683498382568e-01
1.032124757766723633e+00 -8.669568598270416260e-02 3.114038407802581787e-01
1.124233245849609375e+00 -1.748563200235366821e-01 3.389321267604827881e-01
1.171860098838806152e+00 -1.047764718532562256e-01 3.016194105148315430e-01
1.146639108657836914e+00 -4.367898777127265930e-02 7.855492830276489258e-01
1.129187822341918945e+00 -1.632858067750930786e-01 3.113267123699188232e-01
9.551049470901489258e-01 -3.210900425910949707e-01 3.735770285129547119e-01
1.024476408958435059e+00 -1.159580498933792114e-01 3.149869740009307861e-01
1.047708749771118164e+00 -7.521815598011016846e-02 3.350077271461486816e-01
1.004963874816894531e+00 -1.617266535758972168e-01 3.225104808807373047e-01
1.058542251586914062e+00 -2.547141611576080322e-01 3.229822218418121338e-01
1.013194561004638672e+00 -1.429025083780288696e-01 3.183666765689849854e-01
1.138877630233764648e+00 -1.356529146432876587e-01 3.074713945388793945e-01
1.023296713829040527e+00 -1.018699407577514648e-01 3.175820708274841309e-01
1.071842193603515625e+00 -2.315589636564254761e-01 3.208499848842620850e-01
1.036548018455505371e+00 -9.249216318130493164e-02 3.126502633094787598e-01
1.044419288635253906e+00 -6.755594164133071899e-02 3.094230890274047852e-01
9.049011468887329102e-01 -5.306332111358642578e-01 9.724725484848022461e-01
1.068740606307983398e+00 -2.334089577198028564e-01 3.217868208885192871e-01
1.149726033210754395e+00 -1.176191270351409912e-01 3.312162160873413086e-01
9.873718023300170898e-01 -2.665653526782989502e-01 3.569225072860717773e-01
9.014477729797363281e-01 -5.055261850357055664e-01 1.032878160476684570e+00
1.147753715515136719e+00 -1.335169970989227295e-01 3.052951097488403320e-01
1.141392469406127930e+00 -5.102706328034400940e-02 7.745154500007629395e-01
1.173280239105224609e+00 -1.122387126088142395e-02 8.397527933120727539e-01
1.043753981590270996e+00 -7.302176952362060547e-02 3.105751276016235352e-01
1.171496629714965820e+00 2.096119336783885956e-03 8.550908565521240234e-01
1.111872911453247070e+00 -4.345041513442993164e-02 6.450668573379516602e-01
1.199764609336853027e+00 -4.087300971150398254e-02 3.136676251888275146e-01
9.369376897811889648e-01 -5.193961858749389648e-01 1.034868955612182617e+00
1.002071499824523926e+00 -1.803306341171264648e-01 3.216198086738586426e-01
1.201225757598876953e+00 -3.497806936502456665e-02 3.055331110954284668e-01
9.155076742172241211e-01 -5.157238841056823730e-01 9.815722107887268066e-01
1.119656682014465332e+00 -6.018932163715362549e-02 7.372358441352844238e-01
1.109505772590637207e+00 -4.347943887114524841e-02 6.395034790039062500e-01
9.088579416275024414e-01 -5.042248368263244629e-01 1.037160515785217285e+00
1.177320837974548340e+00 2.213551290333271027e-02 9.007468223571777344e-01
1.164260029792785645e+00 -9.658591449260711670e-02 3.012526035308837891e-01
1.177875638008117676e+00 -5.617703776806592941e-03 8.501503467559814453e-01
8.910563588142395020e-01 -5.245164632797241211e-01 1.042325377464294434e+00
1.059228658676147461e+00 -3.817825764417648315e-02 3.093267679214477539e-01
1.178703546524047852e+00 1.068341732025146484e-02 8.671411871910095215e-01
1.118128657341003418e+00 -6.610410660505294800e-02 6.434717178344726562e-01
8.452318310737609863e-01 -5.878754854202270508e-01 9.214251041412353516e-01
1.079900145530700684e+00 -2.198190093040466309e-01 3.194457888603210449e-01
9.365847110748291016e-01 -3.384870290756225586e-01 4.059380292892456055e-01
1.122066736221313477e+00 -9.598443657159805298e-02 7.119004130363464355e-01
1.145606279373168945e+00 -1.199006289243698120e-01 3.072052001953125000e-01
1.158344268798828125e+00 -1.250315010547637939e-01 3.074404001235961914e-01
8.875736594200134277e-01 -6.072113513946533203e-01 8.832423686981201172e-01
1.098412036895751953e+00 -1.890112161636352539e-01 3.490629494190216064e-01
1.067998886108398438e+00 -1.099582295864820480e-02 3.054421842098236084e-01
1.169272303581237793e+00 -9.100486338138580322e-02 3.256008327007293701e-01
8.381805419921875000e-01 -6.124871969223022461e-01 9.275850653648376465e-01
1.153383851051330566e+00 -2.554146572947502136e-02 8.154371380805969238e-01
1.185693621635437012e+00 -8.975297212600708008e-02 3.186790645122528076e-01
1.074609160423278809e+00 -2.346761077642440796e-01 3.210103511810302734e-01
1.179728388786315918e+00 4.246333613991737366e-03 8.595882654190063477e-01
1.107892870903015137e+00 -1.975416839122772217e-01 3.433626890182495117e-01
8.435895442962646484e-01 -5.909919142723083496e-01 9.225624799728393555e-01
1.051957368850708008e+00 -2.692221701145172119e-01 3.720982670783996582e-01
1.109333038330078125e+00 -6.183020025491714478e-02 6.365845799446105957e-01
9.664902687072753906e-01 -3.705236911773681641e-01 3.817766308784484863e-01
1.153327465057373047e+00 -3.886371478438377380e-02 7.943809628486633301e-01
1.188344359397888184e+00 9.006822481751441956e-03 8.758397102355957031e-01
1.153092145919799805e+00 -1.114371791481971741e-01 3.287877440452575684e-01
1.145492434501647949e+00 -5.152466893196105957e-02 7.749843001365661621e-01
9.705923199653625488e-01 -2.678475081920623779e-01 3.596949577331542969e-01
1.094096899032592773e+00 -2.078834921121597290e-01 3.173719942569732666e-01
1.143368959426879883e+00 -5.260086804628372192e-02 7.721361517906188965e-01
1.068711519241333008e+00 -2.312297821044921875e-01 3.607877492904663086e-01
1.001578807830810547e+00 -3.528291583061218262e-01 3.566443324089050293e-01
1.048893451690673828e+00 -6.976577639579772949e-02 3.352771997451782227e-01
1.147318959236145020e+00 -5.582308769226074219e-02 7.742318511009216309e-01
1.017905116081237793e+00 -1.365710496902465820e-01 3.173255920410156250e-01
1.052263975143432617e+00 -2.710806727409362793e-01 3.260585665702819824e-01
1.168030381202697754e+00 -1.494015939533710480e-02 8.306956291198730469e-01
1.172098398208618164e+00 -8.477577939629554749e-03 8.405670523643493652e-01
1.045453071594238281e+00 -2.671675980091094971e-01 3.252398669719696045e-01
1.059456586837768555e+00 -2.663421034812927246e-01 3.694619536399841309e-01
9.824768304824829102e-01 -2.370433807373046875e-01 3.574969768524169922e-01
1.111027359962463379e+00 -1.038615182042121887e-01 6.970022916793823242e-01
1.149641394615173340e+00 -4.129877313971519470e-02 7.894840240478515625e-01
1.111464977264404297e+00 -7.829267531633377075e-02 7.316272258758544922e-01
1.148372650146484375e+00 -3.910791873931884766e-02 7.925804853439331055e-01
1.109209060668945312e+00 -1.048607602715492249e-01 7.792901992797851562e-01
1.159934759140014648e+00 -5.364854633808135986e-02 5.370215773582458496e-01
1.089549899101257324e+00 -1.385720819234848022e-01 6.503177881240844727e-01
1.074515342712402344e+00 -2.408120930194854736e-01 3.243833780288696289e-01
1.070949673652648926e+00 -4.475104156881570816e-03 3.233202397823333740e-01
1.006173014640808105e+00 -1.952055394649505615e-01 3.237946033477783203e-01
1.053883790969848633e+00 -7.853040471673011780e-03 3.247162103652954102e-01
8.486106991767883301e-01 -6.236556768417358398e-01 9.230165481567382812e-01
9.310780763626098633e-01 -5.415631532669067383e-01 1.038537263870239258e+00
1.007322549819946289e+00 -3.129665553569793701e-01 3.886181712150573730e-01
1.155829548835754395e+00 -5.707710236310958862e-02 5.524501204490661621e-01
1.170073747634887695e+00 -1.471607759594917297e-02 8.330647945404052734e-01
1.017850160598754883e+00 -1.227878630161285400e-01 3.173332214355468750e-01
1.143530726432800293e+00 -7.086860388517379761e-02 7.304221391677856445e-01
1.156050920486450195e+00 -7.879915833473205566e-02 6.400240063667297363e-01
9.143821001052856445e-01 -5.337654948234558105e-01 9.799368977546691895e-01
1.167549252510070801e+00 -1.080955937504768372e-02 8.351806998252868652e-01
1.018701791763305664e+00 -1.198379993438720703e-01 3.170071244239807129e-01
1.009398221969604492e+00 -3.527844548225402832e-01 3.458173274993896484e-01
1.006799459457397461e+00 -1.597164273262023926e-01 3.492224812507629395e-01
1.196303606033325195e+00 1.743434742093086243e-02 8.970563411712646484e-01
1.069100379943847656e+00 3.467457368969917297e-02 3.150998651981353760e-01
1.110893726348876953e+00 -1.016710996627807617e-01 7.005444765090942383e-01
1.065119385719299316e+00 -2.435658127069473267e-01 3.670185506343841553e-01
1.070147752761840820e+00 -1.710620075464248657e-01 6.058648228645324707e-01
9.434856772422790527e-01 -3.261473178863525391e-01 4.031720161437988281e-01
1.101303339004516602e+00 -1.999521106481552124e-01 3.166128695011138916e-01
1.010230660438537598e+00 -1.433325409889221191e-01 3.226343691349029541e-01
1.147816538810729980e+00 -1.165850758552551270e-01 3.067031800746917725e-01
9.959645271301269531e-01 -1.895362734794616699e-01 3.279905617237091064e-01
9.368435740470886230e-01 -3.726634383201599121e-01 3.816163539886474609e-01
1.155151963233947754e+00 -2.365912683308124542e-02 8.175092339515686035e-01
1.016149997711181641e+00 -1.324064880609512329e-01 3.174386620521545410e-01
1.056654095649719238e+00 -2.602840065956115723e-01 3.703278899192810059e-01
1.064520716667175293e+00 -1.840056478977203369e-02 3.278878927230834961e-01
1.016144514083862305e+00 -1.304809302091598511e-01 3.471609055995941162e-01
9.850289821624755859e-01 -2.948349416255950928e-01 3.932726979255676270e-01
1.153621435165405273e+00 -1.137441173195838928e-01 3.311466872692108154e-01
1.124740123748779297e+00 -1.551876962184906006e-01 3.107335567474365234e-01
1.107331991195678711e+00 -1.182504519820213318e-01 6.800099611282348633e-01
1.018575310707092285e+00 -1.215017735958099365e-01 3.434909582138061523e-01
9.098656177520751953e-01 -5.091584920883178711e-01 1.037025809288024902e+00
1.138156414031982422e+00 -1.294180750846862793e-01 3.091627359390258789e-01
1.043586730957031250e+00 -2.830314636230468750e-01 3.749822676181793213e-01
1.077606558799743652e+00 -2.267518937587738037e-01 3.200842738151550293e-01
1.055380702018737793e+00 -2.527013719081878662e-01 3.237554132938385010e-01
1.126136660575866699e+00 -6.231540814042091370e-02 7.316362857818603516e-01
1.176010251045227051e+00 -6.925478111952543259e-03 8.463510274887084961e-01
1.158150076866149902e+00 -3.970000147819519043e-02 8.007860779762268066e-01
1.109621644020080566e+00 -4.425953328609466553e-02 6.427153944969177246e-01
1.079214096069335938e+00 -2.231041193008422852e-01 3.196028470993041992e-01
9.454017281532287598e-01 -3.175773024559020996e-01 3.493246436119079590e-01
1.041433572769165039e+00 -2.841909825801849365e-01 3.270891904830932617e-01
1.174778938293457031e+00 -7.927994430065155029e-02 3.206084668636322021e-01
8.942968845367431641e-01 -5.167553424835205078e-01 1.038085579872131348e+00
1.085827589035034180e+00 -2.056783735752105713e-01 3.513687252998352051e-01
1.171204209327697754e+00 -1.072408109903335571e-01 3.050583899021148682e-01
9.346059560775756836e-01 -5.345107913017272949e-01 1.034602165222167969e+00
1.181139707565307617e+00 -1.132254395633935928e-02 9.186311960220336914e-01
1.053412914276123047e+00 -2.514258325099945068e-01 3.258062303066253662e-01
1.148911237716674805e+00 -6.221572309732437134e-02 6.340843439102172852e-01
1.073956727981567383e+00 3.269074484705924988e-03 3.065442740917205811e-01
1.122891187667846680e+00 -6.045570969581604004e-02 7.364276051521301270e-01
1.162995338439941406e+00 -1.766762137413024902e-02 8.249912261962890625e-01
1.069376349449157715e+00 -9.901690296828746796e-03 3.082684874534606934e-01
1.149638891220092773e+00 -4.440461844205856323e-02 7.857264876365661621e-01
1.151548624038696289e+00 -3.073271736502647400e-02 8.063285350799560547e-01
1.026375174522399902e+00 -9.283114969730377197e-02 3.154550194740295410e-01
1.155771255493164062e+00 -6.357065588235855103e-02 6.387920379638671875e-01
9.551844596862792969e-01 -3.820054829120635986e-01 3.806186914443969727e-01
1.023485898971557617e+00 -1.416757106781005859e-01 3.530556559562683105e-01
1.172509431838989258e+00 1.794810965657234192e-02 9.071038365364074707e-01
1.088734030723571777e+00 -2.206636071205139160e-01 3.213026821613311768e-01
1.047677993774414062e+00 -2.763250768184661865e-01 3.735319375991821289e-01
1.110402345657348633e+00 -1.880073249340057373e-01 3.148863017559051514e-01
1.159159898757934570e+00 -7.364529371261596680e-02 6.417083144187927246e-01
1.172967433929443359e+00 -1.054916381835937500e-01 3.069374561309814453e-01
9.789381623268127441e-01 -2.462177872657775879e-01 3.542675077915191650e-01
1.177956461906433105e+00 1.226440072059631348e-02 8.703514933586120605e-01
1.181759238243103027e+00 1.780408807098865509e-02 8.782867193222045898e-01
1.111501574516296387e+00 -6.455735117197036743e-02 7.300526499748229980e-01
9.074364900588989258e-01 -5.212877392768859863e-01 9.848879575729370117e-01
1.087319493293762207e+00 -1.501373201608657837e-01 6.356771588325500488e-01
8.539937138557434082e-01 -5.905196666717529297e-01 8.921118974685668945e-01
1.150169372558593750e+00 -6.227526813745498657e-02 6.429254412651062012e-01
1.053713798522949219e+00 -5.618372932076454163e-02 3.320387601852416992e-01
9.033927917480468750e-01 -5.282787084579467773e-01 9.802030920982360840e-01
1.115927219390869141e+00 -3.323959931731224060e-02 5.485518574714660645e-01
