-2.519320011138916016e+00 2.811666488647460938e+01 1.761678466796875000e+02
2.450618934631347656e+01 1.714846611022949219e+01 1.375348510742187500e+02
3.443739712238311768e-01 1.044674301147460938e+01 1.039875564575195312e+02
-1.145014190673828125e+01 3.205184173583984375e+01 1.373404693603515625e+02
2.686258316040039062e+01 3.959846115112304688e+01 1.660902252197265625e+02
-1.156823062896728516e+01 1.269207191467285156e+01 9.989971160888671875e+01
4.091091918945312500e+01 3.045541191101074219e+01 1.463733062744140625e+02
2.996267318725585938e+01 2.308362197875976562e+01 1.542254638671875000e+02
-1.146100234985351562e+01 3.123982429504394531e+01 1.113143005371093750e+02
-6.061758518218994141e+00 3.981325149536132812e+01 1.543133392333984375e+02
2.178998184204101562e+01 1.814224243164062500e+01 7.142868804931640625e+01
1.631872177124023438e+01 1.164634132385253906e+01 1.073089370727539062e+02
1.844683265686035156e+01 1.136829185485839844e+01 9.214344024658203125e+01
3.605584335327148438e+01 1.909152412414550781e+01 1.014900360107421875e+02
6.705973148345947266e+00 4.172004318237304688e+01 9.839044189453125000e+01
-1.094852733612060547e+01 3.420056533813476562e+01 1.136631698608398438e+02
7.101012229919433594e+00 1.325819683074951172e+01 1.778997650146484375e+02
1.545379543304443359e+01 2.570724678039550781e+01 1.838214569091796875e+02
3.250208663940429688e+01 2.473416137695312500e+01 1.447613525390625000e+02
1.582047843933105469e+01 2.513731765747070312e+01 1.848670654296875000e+02
4.807922363281250000e+00 1.104696369171142578e+01 1.430936126708984375e+02
6.162524700164794922e+00 1.091370773315429688e+01 1.117120285034179688e+02
2.131883621215820312e+01 4.058159637451171875e+01 1.255530700683593750e+02
-3.540198087692260742e+00 1.226108264923095703e+01 1.440944671630859375e+02
3.297756958007812500e+01 1.959171676635742188e+01 9.482015991210937500e+01
-1.230830383300781250e+01 1.879884147644042969e+01 1.624409484863281250e+02
-1.586759328842163086e+00 2.789953613281250000e+01 1.763123626708984375e+02
-2.555624008178710938e+00 4.070656204223632812e+01 1.462980346679687500e+02
7.393026351928710938e+00 1.195215415954589844e+01 1.787959442138671875e+02
-4.816505908966064453e+00 1.552835845947265625e+01 1.412334747314453125e+02
2.410473632812500000e+01 1.509074687957763672e+01 1.035721511840820312e+02
1.355162906646728516e+01 4.165321731567382812e+01 1.293040008544921875e+02
-2.413918972015380859e+00 3.963652420043945312e+01 1.359074249267578125e+02
3.961473846435546875e+01 2.850307846069335938e+01 1.464989776611328125e+02
-2.750854492187500000e+00 1.400230216979980469e+01 1.378732452392578125e+02
1.850253295898437500e+01 1.133903217315673828e+01 9.192031097412109375e+01
2.511477088928222656e+01 1.810574722290039062e+01 1.377228088378906250e+02
2.223787307739257812e+01 3.043755292892456055e+00 1.821142315864562988e+00
9.937023162841796875e+00 3.181226730346679688e+01 7.218860626220703125e+01
8.719879150390625000e+00 4.211717605590820312e+01 9.820750427246093750e+01
2.931012153625488281e+01 2.460719680786132812e+01 1.233667984008789062e+02
3.776822662353515625e+01 3.488051223754882812e+01 1.568812103271484375e+02
-1.886466598510742188e+01 3.266328811645507812e+01 1.386884307861328125e+02
-8.057714462280273438e+00 1.686679840087890625e+01 1.182834777832031250e+02
-7.191320419311523438e+00 3.678592681884765625e+01 1.222530670166015625e+02
1.115064620971679688e+01 1.409323215484619141e+01 1.783735198974609375e+02
-1.276482486724853516e+01 2.821457862854003906e+01 1.265281448364257812e+02
2.917181777954101562e+01 2.905730247497558594e+01 1.086699142456054688e+02
-9.774585723876953125e+00 1.757311820983886719e+01 1.146263809204101562e+02
3.322220611572265625e+01 2.480115127563476562e+01 1.451438140869140625e+02
-4.918896198272705078e+00 3.766455459594726562e+01 1.115876235961914062e+02
-1.045462131500244141e+01 1.801881027221679688e+01 1.604989929199218750e+02
-5.086208820343017578e+00 1.314853000640869141e+01 1.122755432128906250e+02
-1.340837097167968750e+01 3.221091461181640625e+01 1.385580139160156250e+02
1.520914936065673828e+01 2.692141914367675781e+01 1.786640167236328125e+02
7.780978202819824219e+00 1.170609760284423828e+01 1.787606658935546875e+02
1.537715244293212891e+01 2.534679794311523438e+01 1.822823944091796875e+02
3.362218856811523438e+01 3.851748657226562500e+01 1.605274658203125000e+02
2.326877784729003906e+01 9.327050209045410156e+00 4.070649147033691406e+00
-9.792778015136718750e+00 1.784350204467773438e+01 1.606880493164062500e+02
1.439547348022460938e+01 1.134048843383789062e+01 1.411746978759765625e+02
1.578710556030273438e+01 4.067565536499023438e+01 1.118705596923828125e+02
6.420252323150634766e+00 1.266930389404296875e+01 1.788641510009765625e+02
-5.612485408782958984e+00 1.370860862731933594e+01 1.128106460571289062e+02
-9.531737327575683594e+00 3.524044418334960938e+01 1.364675750732421875e+02
1.859164619445800781e+01 1.134144020080566406e+01 9.163394927978515625e+01
-2.569065284729003906e+01 2.331035614013671875e+01 1.433421630859375000e+02
2.310195541381835938e+01 1.512276458740234375e+01 1.139471740722656250e+02
-3.182436704635620117e+00 1.147947692871093750e+01 9.648719024658203125e+01
1.733457183837890625e+01 9.834927558898925781e+00 2.648000955581665039e+00
3.293810129165649414e+00 9.974030494689941406e+00 1.004160690307617188e+02
-9.017865180969238281e+00 1.634333610534667969e+01 1.509550781250000000e+02
3.260232543945312500e+01 2.193223381042480469e+01 9.643988800048828125e+01
1.874732398986816406e+01 1.838778114318847656e+01 1.148769092559814453e+01
3.767628479003906250e+01 3.649215316772460938e+01 1.384967041015625000e+02
-1.086716365814208984e+01 9.786869049072265625e+00 9.164128875732421875e+01
-1.120003890991210938e+01 3.322881698608398438e+01 1.151963806152343750e+02
4.058998489379882812e+01 3.241452407836914062e+01 1.444494628906250000e+02
-1.450042438507080078e+01 1.917058181762695312e+01 1.636371917724609375e+02
-1.061369609832763672e+01 1.806846809387207031e+01 1.601335144042968750e+02
-1.607933616638183594e+01 3.291326141357421875e+01 1.386775360107421875e+02
1.381913661956787109e+01 1.019028854370117188e+01 1.293752746582031250e+02
-1.536721992492675781e+01 1.924662399291992188e+01 9.814086151123046875e+01
-8.224650382995605469e+00 1.712994575500488281e+01 1.593841857910156250e+02
-4.829340934753417969e+00 3.935236358642578125e+01 1.491374206542968750e+02
-5.675731897354125977e-01 2.061986732482910156e+01 1.904366912841796875e+02
2.762742519378662109e+00 1.192920398712158203e+01 1.930983428955078125e+02
4.053116226196289062e+01 3.220397567749023438e+01 1.459014282226562500e+02
1.442237472534179688e+01 1.114220714569091797e+01 9.669832611083984375e+01
-5.347291946411132812e+00 3.980612564086914062e+01 1.013566589355468750e+02
-1.532027339935302734e+01 2.436194610595703125e+01 9.443351745605468750e+01
2.984455299377441406e+01 2.459673309326171875e+01 1.024838104248046875e+02
3.270456075668334961e+00 2.054430961608886719e+01 1.801196441650390625e+02
6.225408077239990234e+00 1.294122695922851562e+01 1.787969818115234375e+02
3.062767028808593750e+01 2.344646072387695312e+01 1.546817321777343750e+02
3.751649475097656250e+01 3.612531661987304688e+01 1.456384124755859375e+02
2.233433532714843750e+01 1.386988258361816406e+01 1.015072174072265625e+02
2.446541404724121094e+01 1.862539672851562500e+01 4.646900653839111328e+00
1.641559028625488281e+01 3.978698730468750000e+01 1.126933059692382812e+02
-1.125837898254394531e+01 3.233798599243164062e+01 1.375991821289062500e+02
1.294586563110351562e+01 1.056214046478271484e+01 1.074377593994140625e+02
2.260535240173339844e+01 1.532763385772705078e+01 1.107727584838867188e+02
1.855164146423339844e+01 3.349420166015625000e+01 6.182603836059570312e+01
-9.440349578857421875e+00 1.824356269836425781e+01 1.200205230712890625e+02
-1.597988319396972656e+01 2.414450645446777344e+01 9.765757751464843750e+01
-2.095103502273559570e+00 2.412175178527832031e+01 1.929425811767578125e+02
1.912013626098632812e+01 1.795347404479980469e+01 1.012150955200195312e+01
-8.493139266967773438e+00 1.563920021057128906e+01 1.523504333496093750e+02
3.168349742889404297e+00 3.999102401733398438e+01 1.290929260253906250e+02
-3.273365020751953125e+00 1.144997119903564453e+01 1.012959518432617188e+02
3.351486968994140625e+01 1.796332168579101562e+01 9.539362335205078125e+01
-2.381456565856933594e+01 2.730716133117675781e+01 1.408615112304687500e+02
1.468024444580078125e+01 1.578992748260498047e+01 1.910384979248046875e+02
1.495313549041748047e+01 2.748443031311035156e+01 1.805448760986328125e+02
2.657041931152343750e+01 1.935197257995605469e+01 1.101820602416992188e+02
1.876803207397460938e+01 1.186043834686279297e+01 9.648213958740234375e+01
2.387550926208496094e+01 1.489184284210205078e+01 1.034280166625976562e+02
4.630223810672760010e-01 4.009995651245117188e+01 1.183686294555664062e+02
3.676366806030273438e+01 3.299617004394531250e+01 1.631944580078125000e+02
-2.415782451629638672e+00 3.937666702270507812e+01 1.292818298339843750e+02
6.942339420318603516e+00 9.632319450378417969e+00 1.096283645629882812e+02
-9.883205413818359375e+00 1.230441474914550781e+01 9.820261383056640625e+01
2.546264648437500000e+01 1.859080505371093750e+01 1.136812362670898438e+02
2.243208694458007812e+01 1.539432621002197266e+01 1.342242279052734375e+02
1.419313907623291016e+01 1.531499576568603516e+01 1.914205474853515625e+02
8.554835319519042969e+00 1.119776058197021484e+01 1.825972595214843750e+02
3.341183090209960938e+01 1.781476783752441406e+01 9.506958770751953125e+01
-9.237048149108886719e+00 1.029529190063476562e+01 9.251859283447265625e+01
2.512110328674316406e+01 3.693830490112304688e+01 1.308264923095703125e+02
3.236705780029296875e+01 2.405297470092773438e+01 1.574133300781250000e+02
1.674687957763671875e+01 1.361349391937255859e+01 4.495905876159667969e+00
4.033881759643554688e+01 3.221565628051757812e+01 1.469303894042968750e+02
1.587861919403076172e+01 4.055734252929687500e+01 1.119917297363281250e+02
6.785215854644775391e+00 1.042846012115478516e+01 1.156412353515625000e+02
-6.733549594879150391e+00 1.436802768707275391e+01 1.161037826538085938e+02
1.919348335266113281e+01 3.824919509887695312e+01 1.132980194091796875e+02
3.845165634155273438e+01 3.339049530029296875e+01 1.477215728759765625e+02
7.009777545928955078e+00 1.823939895629882812e+01 1.753160552978515625e+02
1.496464610099792480e+00 1.110024261474609375e+01 1.014631271362304688e+02
7.992394566535949707e-01 3.219594573974609375e+01 6.470411682128906250e+01
2.780652618408203125e+01 1.679587936401367188e+01 1.001023025512695312e+02
-1.110995960235595703e+01 1.902281188964843750e+01 1.130510559082031250e+02
2.419790506362915039e+00 9.692615509033203125e+00 1.002540130615234375e+02
2.292519569396972656e+01 1.490040397644042969e+01 1.140466308593750000e+02
-6.013265609741210938e+00 1.519381141662597656e+01 1.175134658813476562e+02
6.425097465515136719e+00 1.087426757812500000e+01 1.116595993041992188e+02
1.143148136138916016e+01 1.931085395812988281e+01 1.675756988525390625e+02
3.013161849975585938e+01 3.478678131103515625e+01 1.348851318359375000e+02
1.866629219055175781e+01 1.187331390380859375e+01 9.663363647460937500e+01
1.477127838134765625e+01 1.010230350494384766e+01 1.230833053588867188e+02
6.998929977416992188e+00 4.231121063232421875e+01 1.092263412475585938e+02
1.657202911376953125e+01 1.114005661010742188e+01 1.128136291503906250e+02
3.865132141113281250e+01 2.999965858459472656e+01 1.547268524169921875e+02
2.446374893188476562e+01 1.531992053985595703e+01 1.035139999389648438e+02
2.684844589233398438e+01 4.720302581787109375e+00 7.803111076354980469e-01
1.625706863403320312e+01 1.146872520446777344e+01 2.535920619964599609e+00
1.983976364135742188e+01 1.313299846649169922e+01 1.077849349975585938e+02
2.358551597595214844e+01 1.362462711334228516e+01 9.008972167968750000e+01
3.780556488037109375e+01 3.580795288085937500e+01 1.463925781250000000e+02
3.794363784790039062e+01 3.525157165527343750e+01 1.496217346191406250e+02
-1.342416763305664062e+01 3.234465026855468750e+01 1.388211059570312500e+02
2.635072231292724609e+00 4.020725250244140625e+01 1.114379501342773438e+02
-5.326435565948486328e+00 1.448664951324462891e+01 1.171672439575195312e+02
-8.445370674133300781e+00 2.191227149963378906e+01 1.133126640319824219e+01
-5.014058113098144531e+00 3.958876419067382812e+01 1.034136505126953125e+02
1.766998481750488281e+01 6.639650344848632812e+00 -5.488679409027099609e-01
3.209517669677734375e+01 3.664786911010742188e+01 1.357414093017578125e+02
3.852423477172851562e+01 3.244250488281250000e+01 1.584863433837890625e+02
2.658569717407226562e+01 1.875966835021972656e+01 1.076285781860351562e+02
-1.442683601379394531e+01 1.881282615661621094e+01 1.593579406738281250e+02
1.284672832489013672e+01 4.180502319335937500e+01 1.074857635498046875e+02
1.068867397308349609e+01 1.138613986968994141e+01 1.870469970703125000e+02
3.285321044921875000e+01 2.059952926635742188e+01 9.513671112060546875e+01
3.096169853210449219e+01 3.819765853881835938e+01 1.433891754150390625e+02
8.385382652282714844e+00 4.203691482543945312e+01 1.096321563720703125e+02
2.098719406127929688e+01 1.302581119537353516e+01 1.130122833251953125e+02
-9.750626564025878906e+00 2.307467079162597656e+01 1.038319206237792969e+01
1.944349670410156250e+01 7.946396350860595703e+00 3.230417966842651367e+00
4.064154052734375000e+01 3.204617309570312500e+01 1.458044586181640625e+02
-1.416735172271728516e+01 2.560757255554199219e+01 1.083440628051757812e+02
-3.852741718292236328e-01 2.284463119506835938e+01 1.713813934326171875e+02
1.309127998352050781e+01 1.026948547363281250e+01 1.247384262084960938e+02
2.078212928771972656e+01 1.331387233734130859e+01 1.055185470581054688e+02
-1.456308460235595703e+01 2.413980865478515625e+01 1.343429107666015625e+02
-8.765811920166015625e+00 1.653781127929687500e+01 1.153054962158203125e+02
-1.142523860931396484e+01 1.904733276367187500e+01 1.622070465087890625e+02
2.663772583007812500e+01 1.978298568725585938e+01 1.103659973144531250e+02
1.515953922271728516e+01 4.160146713256835938e+01 1.099619445800781250e+02
3.151208686828613281e+01 3.666659927368164062e+01 1.358941955566406250e+02
-1.494030094146728516e+01 2.831356620788574219e+01 9.346736145019531250e+01
2.247469139099121094e+01 2.408742189407348633e+00 6.065101027488708496e-01
2.554930686950683594e+01 2.460634994506835938e+01 7.432518005371093750e+01
3.137840080261230469e+01 2.454201889038085938e+01 1.630835266113281250e+02
2.723977279663085938e+01 1.795983886718750000e+01 1.032584915161132812e+02
-7.694608211517333984e+00 3.254276275634765625e+01 8.349942779541015625e+01
3.776978302001953125e+01 3.588521957397460938e+01 1.467056884765625000e+02
9.620261192321777344e+00 2.638939857482910156e+01 4.722996139526367188e+01
1.587404537200927734e+01 1.120491123199462891e+01 1.068322219848632812e+02
7.305646419525146484e+00 1.081280326843261719e+01 1.877565460205078125e+02
3.826958847045898438e+01 3.360846328735351562e+01 1.482203063964843750e+02
3.596304953098297119e-01 1.115466594696044922e+01 1.398634033203125000e+02
-2.821828842163085938e+00 1.253224849700927734e+01 1.330495147705078125e+02
-3.173868417739868164e+00 3.999491119384765625e+01 9.821653747558593750e+01
1.376545715332031250e+01 4.258220291137695312e+01 1.200333175659179688e+02
4.071977233886718750e+01 3.066692924499511719e+01 1.472361602783203125e+02
-7.164197921752929688e+00 3.691279602050781250e+01 1.114569549560546875e+02
-1.618190956115722656e+01 2.676669883728027344e+01 1.690640411376953125e+02
3.871978759765625000e+01 3.304705429077148438e+01 1.479360198974609375e+02
-1.024988269805908203e+01 2.537175178527832031e+01 1.362769470214843750e+02
5.170568943023681641e+00 1.118425941467285156e+01 1.447099456787109375e+02
1.139961814880371094e+01 1.027182006835937500e+01 1.154577789306640625e+02
-7.441377639770507812e-01 2.322355270385742188e+01 1.718253479003906250e+02
-9.494004249572753906e+00 1.823988914489746094e+01 1.198593826293945312e+02
-1.125414848327636719e+01 3.290892791748046875e+01 1.154423522949218750e+02
3.865222930908203125e+01 3.324609756469726562e+01 1.463038940429687500e+02
3.822066497802734375e+01 3.374746322631835938e+01 1.472496032714843750e+02
2.044642066955566406e+01 3.256277847290039062e+01 3.008128404617309570e+00
6.809654712677001953e+00 1.237685394287109375e+01 1.787400054931640625e+02
1.541012287139892578e+01 2.676259803771972656e+01 1.845520324707031250e+02
-3.440960645675659180e+00 3.848243331909179688e+01 1.111239242553710938e+02
-1.142776298522949219e+01 3.564999389648437500e+01 9.839405059814453125e+01
-6.755058765411376953e+00 1.150365543365478516e+01 9.935526275634765625e+01
1.521703910827636719e+01 1.466522407531738281e+01 1.932901916503906250e+02
-1.254349708557128906e+01 1.878606414794921875e+01 1.624560546875000000e+02
-2.987138032913208008e+00 1.416612243652343750e+01 1.377193756103515625e+02
-6.884262084960937500e+00 3.718501663208007812e+01 1.213865356445312500e+02
3.367345809936523438e+01 3.473085403442382812e+01 1.289763488769531250e+02
2.797785758972167969e+01 2.155548477172851562e+01 1.128543701171875000e+02
2.962855911254882812e+01 2.892117691040039062e+01 9.957003784179687500e+01
1.981645584106445312e+01 1.118091487884521484e+01 5.000661373138427734e+00
-5.511138439178466797e+00 1.513343238830566406e+01 1.366200408935546875e+02
3.086747360229492188e+01 2.385274696350097656e+01 1.604489440917968750e+02
-1.195869827270507812e+01 3.178196716308593750e+01 1.158039016723632812e+02
2.793672180175781250e+01 3.070780754089355469e+01 1.092210311889648438e+02
8.090946197509765625e+00 1.150869560241699219e+01 1.787702636718750000e+02
3.181478500366210938e+00 1.151242828369140625e+01 1.420593719482421875e+02
2.364774513244628906e+01 1.488128280639648438e+01 1.093729400634765625e+02
-7.703718662261962891e+00 3.506167602539062500e+01 1.168779449462890625e+02
1.535256004333496094e+01 3.003842735290527344e+01 1.773994445800781250e+02
-1.561911678314208984e+01 2.408485794067382812e+01 9.384725952148437500e+01
1.719198608398437500e+01 1.127992439270019531e+01 1.067972183227539062e+02
1.385857200622558594e+01 1.012657642364501953e+01 1.150346221923828125e+02
1.547295379638671875e+01 1.138586807250976562e+01 1.069734802246093750e+02
1.378927040100097656e+01 1.097341632843017578e+01 1.377297210693359375e+02
4.032912826538085938e+01 3.238434982299804688e+01 1.461258544921875000e+02
-1.095083141326904297e+01 3.415583038330078125e+01 1.144484558105468750e+02
1.885059547424316406e+01 4.038595581054687500e+01 1.179196243286132812e+02
1.827581214904785156e+01 1.417885398864746094e+01 5.556790828704833984e+00
3.778818130493164062e+01 3.588710784912109375e+01 1.465138244628906250e+02
1.854058647155761719e+01 1.178453826904296875e+01 9.648695373535156250e+01
2.477916336059570312e+01 1.757803535461425781e+01 1.364710998535156250e+02
-1.058150291442871094e+01 1.453191947937011719e+01 1.019603576660156250e+02
2.253656387329101562e+01 1.618176078796386719e+01 1.566080017089843750e+02
-1.117513561248779297e+01 7.124991416931152344e+00 3.977913856506347656e+00
7.375648975372314453e+00 1.213812637329101562e+01 1.909311676025390625e+02
-1.322086429595947266e+01 3.349008560180664062e+01 9.678292846679687500e+01
3.336706542968750000e+01 1.666462516784667969e+01 9.164884948730468750e+01
6.219721794128417969e+00 1.284244251251220703e+01 1.789195251464843750e+02
-7.684725761413574219e+00 1.660746574401855469e+01 1.596010894775390625e+02
-1.498922157287597656e+01 2.811808586120605469e+01 9.323587036132812500e+01
-8.306768417358398438e+00 1.708740234375000000e+01 1.185058517456054688e+02
1.814397621154785156e+01 1.151002025604248047e+01 9.248870086669921875e+01
-9.091508865356445312e+00 3.521468734741210938e+01 1.347814788818359375e+02
-1.290038108825683594e+01 3.203816223144531250e+01 1.381963500976562500e+02
1.884836196899414062e+01 1.173002052307128906e+01 1.057988281250000000e+02
3.389924240112304688e+01 1.791064643859863281e+01 9.935131072998046875e+01
2.941397285461425781e+01 2.596485900878906250e+01 1.021215438842773438e+02
2.934816551208496094e+01 2.532470130920410156e+01 1.470722961425781250e+02
1.059189796447753906e+00 1.003865337371826172e+01 1.106020431518554688e+02
1.272766685485839844e+01 1.141477012634277344e+01 9.479635620117187500e+01
1.821271896362304688e+01 2.476916503906250000e+01 1.934060974121093750e+02
-5.476134300231933594e+00 1.342302894592285156e+01 1.125338516235351562e+02
-4.677764892578125000e+00 4.002084732055664062e+01 1.008986968994140625e+02
2.465912437438964844e+01 1.716793060302734375e+01 1.134143371582031250e+02
6.308086395263671875e+00 1.273332118988037109e+01 1.789452819824218750e+02
2.677545928955078125e+01 1.373725223541259766e+01 8.879502868652343750e+01
-1.095178604125976562e+01 3.338169479370117188e+01 1.152658843994140625e+02
1.991942596435546875e+01 1.333045291900634766e+01 1.081979827880859375e+02
9.570403099060058594e+00 4.213962173461914062e+01 9.773730468750000000e+01
2.383042526245117188e+01 3.514101409912109375e+01 1.106506805419921875e+02
6.383710384368896484e+00 4.166481018066406250e+01 9.833960723876953125e+01
-1.652047991752624512e+00 1.160137748718261719e+01 1.116866912841796875e+02
1.215422344207763672e+01 1.609059715270996094e+01 7.939838409423828125e+01
-6.130817890167236328e+00 1.197111988067626953e+01 8.796120452880859375e+01
-1.129809188842773438e+01 1.865851974487304688e+01 1.120256958007812500e+02
-6.825380325317382812e+00 3.846617126464843750e+01 1.034134674072265625e+02
-4.926604270935058594e+00 1.187959289550781250e+01 1.046867218017578125e+02
1.422791862487792969e+01 2.843127059936523438e+01 1.805456390380859375e+02
-1.058341789245605469e+01 2.358875846862792969e+01 9.289808273315429688e+00
2.645813179016113281e+01 3.539324951171875000e+01 1.185428695678710938e+02
1.844083213806152344e+01 3.995829010009765625e+01 1.077486801147460938e+02
1.734736061096191406e+01 2.780789566040039062e+01 1.895900421142578125e+02
2.666602325439453125e+01 3.521967315673828125e+01 1.175007629394531250e+02
-1.044419097900390625e+01 3.444492721557617188e+01 1.135503234863281250e+02
3.011961174011230469e+01 2.301648521423339844e+01 1.546480255126953125e+02
-1.103610324859619141e+01 1.290461921691894531e+01 9.978441619873046875e+01
1.566552257537841797e+01 1.643525886535644531e+01 1.916441040039062500e+02
2.311141586303710938e+01 3.820954084396362305e+00 2.881337881088256836e+00
2.794234466552734375e+01 2.184122467041015625e+01 1.117989959716796875e+02
-2.036119270324707031e+01 2.172511482238769531e+01 1.556455078125000000e+02
3.886971664428710938e+01 2.993496131896972656e+01 1.538117980957031250e+02
-1.155527210235595703e+01 1.966650390625000000e+01 1.126635665893554688e+02
3.813140869140625000e+01 3.390291976928710938e+01 1.481902618408203125e+02
2.659194183349609375e+01 1.964964485168457031e+01 1.107125473022460938e+02
2.980400848388671875e+01 3.472782516479492188e+01 1.352796936035156250e+02
-2.302864646911621094e+01 2.383102607727050781e+01 1.538764343261718750e+02
3.783839035034179688e+01 3.546641540527343750e+01 1.493571472167968750e+02
3.249317169189453125e+01 2.418231773376464844e+01 1.580169830322265625e+02
4.428640842437744141e+00 1.106094169616699219e+01 1.063370590209960938e+02
2.676402854919433594e+01 1.919637489318847656e+01 -1.279244422912597656e-01
-5.483146905899047852e-01 1.066448879241943359e+01 1.046626739501953125e+02
5.125511646270751953e+00 4.175999069213867188e+01 1.099572525024414062e+02
2.149745178222656250e+01 1.414547061920166016e+01 1.084879150390625000e+02
-1.205735206604003906e+01 1.848017692565917969e+01 1.600249023437500000e+02
-1.140635681152343750e+01 1.886985206604003906e+01 1.113531188964843750e+02
7.868576526641845703e+00 4.055509185791015625e+01 1.130622253417968750e+02
1.395049571990966797e+01 2.728930854797363281e+01 1.833969268798828125e+02
3.281526565551757812e+01 2.483335876464843750e+01 1.618728332519531250e+02
3.531224012374877930e+00 3.992908477783203125e+01 1.293252716064453125e+02
2.070780372619628906e+01 1.201514053344726562e+01 9.416644287109375000e+01
2.995606422424316406e+01 2.364620590209960938e+01 1.234337921142578125e+02
1.366018009185791016e+01 1.103317832946777344e+01 1.380522003173828125e+02
3.816691970825195312e+01 3.319171905517578125e+01 1.543702697753906250e+02
1.009566593170166016e+01 1.027223396301269531e+01 1.891858825683593750e+02
-1.616718864440917969e+01 1.985480690002441406e+01 1.626007232666015625e+02
2.343691253662109375e+01 1.403419208526611328e+01 1.009386444091796875e+02
-8.548733711242675781e+00 3.664610290527343750e+01 1.138479309082031250e+02
3.855643463134765625e+01 3.326931762695312500e+01 1.473847045898437500e+02
2.606639671325683594e+01 1.981176376342773438e+01 1.149204025268554688e+02
-1.009093189239501953e+01 3.382956314086914062e+01 1.153960037231445312e+02
1.630130767822265625e+01 3.992831039428710938e+01 1.126339340209960938e+02
2.885447120666503906e+01 2.678103065490722656e+01 1.373142852783203125e+02
-1.128370761871337891e+01 1.803878593444824219e+01 1.535931091308593750e+02
1.536039257049560547e+01 2.557314109802246094e+01 1.810137023925781250e+02
2.730143165588378906e+01 2.163353919982910156e+01 1.109055862426757812e+02
3.759353876113891602e+00 1.140674972534179688e+01 1.439663238525390625e+02
2.170381736755371094e+01 1.364107418060302734e+01 1.136246948242187500e+02
3.217439270019531250e+01 2.403325462341308594e+01 1.588274688720703125e+02
1.295509338378906250e+01 1.163750553131103516e+01 9.514192199707031250e+01
3.959151077270507812e+01 2.775492095947265625e+01 1.434400634765625000e+02
8.294053077697753906e-01 2.394126319885253906e+01 1.747090911865234375e+02
1.491617202758789062e+01 2.209375381469726562e+01 4.637329483032226562e+01
1.011762237548828125e+01 1.108540916442871094e+01 1.797675170898437500e+02
1.330445194244384766e+01 1.642737960815429688e+01 7.348640441894531250e+01
1.773413658142089844e+01 6.726287364959716797e+00 -3.501964807510375977e-01
1.448828411102294922e+01 4.197544860839843750e+01 9.926880645751953125e+01
3.783036041259765625e+01 3.568894577026367188e+01 1.468701477050781250e+02
2.272827911376953125e+01 1.622850036621093750e+01 1.338416442871093750e+02
1.087246894836425781e+01 2.289909934997558594e+01 5.177637100219726562e+01
-5.875717639923095703e+00 3.986694717407226562e+01 1.547180938720703125e+02
1.553170585632324219e+01 2.625389480590820312e+01 1.784459686279296875e+02
-2.040071338415145874e-01 2.272132682800292969e+01 1.712782592773437500e+02
2.920288848876953125e+01 1.363072109222412109e+01 8.894495391845703125e+01
-1.817606735229492188e+01 1.977343559265136719e+01 1.472703704833984375e+02
-4.442409515380859375e+00 1.135897350311279297e+01 1.006870193481445312e+02
1.907839965820312500e+01 1.145832157135009766e+01 9.120269012451171875e+01
1.582230472564697266e+01 1.060571002960205078e+01 1.141395111083984375e+02
1.787719154357910156e+01 1.721423721313476562e+01 7.827147960662841797e+00
1.426266479492187500e+01 1.018553924560546875e+01 1.257043838500976562e+02
1.119027519226074219e+01 2.175139617919921875e+01 5.521565246582031250e+01
1.014957875013351440e-01 2.243290328979492188e+01 1.709167785644531250e+02
1.289871692657470703e+01 3.348789596557617188e+01 6.298459625244140625e+01
-4.717369079589843750e+00 3.994561767578125000e+01 1.553529205322265625e+02
1.143034458160400391e+01 4.120406341552734375e+01 1.109686431884765625e+02
-7.849033355712890625e+00 1.670667457580566406e+01 1.182577133178710938e+02
2.915824699401855469e+01 2.270657920837402344e+01 9.155225372314453125e+01
-1.362702465057373047e+01 3.233747482299804688e+01 9.877761077880859375e+01
2.176519012451171875e+01 1.953322792053222656e+01 6.842124176025390625e+01
2.961844635009765625e+01 2.505438804626464844e+01 1.480014801025390625e+02
-7.761575698852539062e+00 3.700698089599609375e+01 1.145235290527343750e+02
1.410665321350097656e+01 1.180690288543701172e+01 9.512142181396484375e+01
-7.608947277069091797e+00 2.261945152282714844e+01 1.810393905639648438e+01
-5.044018030166625977e-01 4.046417999267578125e+01 1.451916961669921875e+02
3.802662277221679688e+01 2.940994834899902344e+01 1.372242736816406250e+02
3.882606124877929688e+01 2.985705566406250000e+01 1.535431823730468750e+02
1.538333892822265625e+01 2.534822463989257812e+01 1.811304016113281250e+02
-1.971911430358886719e+01 3.045801353454589844e+01 1.570650787353515625e+02
3.848396301269531250e+01 2.870248985290527344e+01 1.495103454589843750e+02
2.506923484802246094e+01 1.604465103149414062e+01 1.037259826660156250e+02
-7.750111222267150879e-01 1.160650157928466797e+01 1.438941040039062500e+02
2.468290138244628906e+01 1.373781681060791016e+01 9.288136291503906250e+01
1.485129451751708984e+01 2.766346740722656250e+01 1.804347076416015625e+02
1.258649539947509766e+01 4.114073181152343750e+01 1.116122970581054688e+02
1.525073623657226562e+01 1.033628082275390625e+01 1.005626678466796875e+02
-9.890918731689453125e+00 3.489372634887695312e+01 1.190904388427734375e+02
-2.255836105346679688e+01 2.295946121215820312e+01 1.551469573974609375e+02
-1.120517921447753906e+01 3.573204421997070312e+01 9.816973114013671875e+01
-9.152687072753906250e+00 7.322206020355224609e+00 3.484864711761474609e+00
2.480968666076660156e+01 3.584417343139648438e+01 9.571404266357421875e+01
3.207802963256835938e+01 2.384290695190429688e+01 1.572534332275390625e+02
8.001800537109375000e+00 4.103863525390625000e+01 1.439616546630859375e+02
1.232052230834960938e+01 1.016291809082031250e+01 1.069126892089843750e+02
3.839059448242187500e+01 2.999259757995605469e+01 1.563318634033203125e+02
3.808879089355468750e+01 3.080909347534179688e+01 1.588217468261718750e+02
8.665010929107666016e-01 1.098856639862060547e+01 1.412564086914062500e+02
9.671549797058105469e+00 1.114597797393798828e+01 1.802882537841796875e+02
2.515057754516601562e+01 1.474745845794677734e+01 9.557940673828125000e+01
3.785699844360351562e+01 3.540126037597656250e+01 1.495362396240234375e+02
2.681983566284179688e+01 2.226530838012695312e+01 1.314709625244140625e+02
1.808238029479980469e+01 1.589759826660156250e+01 6.737841129302978516e+00
3.693234634399414062e+01 3.292998123168945312e+01 1.626794281005859375e+02
-6.833034515380859375e+00 1.464921951293945312e+01 1.142365646362304688e+02
3.845742034912109375e+01 3.590587234497070312e+01 1.383803405761718750e+02
2.551565361022949219e+01 4.194414901733398438e+01 1.535439910888671875e+02
1.200424671173095703e+01 1.942496109008789062e+01 1.675582275390625000e+02
9.167195320129394531e+00 4.235270690917968750e+01 1.394710235595703125e+02
5.750782966613769531e+00 1.268675804138183594e+01 1.908112182617187500e+02
2.462331199645996094e+01 3.905457305908203125e+01 1.385115356445312500e+02
-1.429753208160400391e+01 3.116446685791015625e+01 9.773773956298828125e+01
-1.448254203796386719e+01 1.912973976135253906e+01 1.613005065917968750e+02
-2.367882490158081055e+00 1.335740375518798828e+01 1.395660705566406250e+02
-1.250348925590515137e+00 3.946001815795898438e+01 1.107841110229492188e+02
1.622923851013183594e+01 1.140265369415283203e+01 1.070545730590820312e+02
3.867825317382812500e+01 3.573668289184570312e+01 1.384590759277343750e+02
9.863128662109375000e+00 2.464942359924316406e+01 5.248611068725585938e+01
1.507610416412353516e+01 1.594809436798095703e+01 1.916069946289062500e+02
5.791563034057617188e+00 1.053401660919189453e+01 1.104469299316406250e+02
1.586090946197509766e+01 2.727024269104003906e+01 1.772503356933593750e+02
-6.880915641784667969e+00 2.234306526184082031e+01 1.847747611999511719e+01
2.984965896606445312e+01 2.477417373657226562e+01 1.129655914306640625e+02
2.175264167785644531e+01 3.070030403137207031e+01 1.852048993110656738e+00
-1.552680110931396484e+01 2.383156013488769531e+01 9.432444763183593750e+01
1.480176830291748047e+01 1.934554672241210938e+01 7.473715305328369141e+00
2.448650896549224854e-01 2.242377662658691406e+01 1.710195312500000000e+02
2.988263320922851562e+01 3.493381118774414062e+01 1.352534179687500000e+02
9.691041111946105957e-01 2.188642311096191406e+01 1.704223175048828125e+02
2.735366058349609375e+01 2.282221221923828125e+01 8.277210235595703125e+01
3.844370269775390625e+01 2.895044136047363281e+01 1.506627502441406250e+02
2.583461523056030273e+00 1.211285781860351562e+01 1.929616699218750000e+02
-6.611942768096923828e+00 3.658887100219726562e+01 1.156390304565429688e+02
2.113295745849609375e+01 1.780437088012695312e+01 7.407559871673583984e+00
2.355895423889160156e+01 1.393685245513916016e+01 1.454861602783203125e+02
-1.139869689941406250e+01 3.216554641723632812e+01 1.374330596923828125e+02
3.501249313354492188e+01 3.713483047485351562e+01 1.372672882080078125e+02
-3.756481885910034180e+00 1.514951705932617188e+01 4.315439224243164062e+00
4.097420883178710938e+01 3.068419647216796875e+01 1.460329895019531250e+02
3.163084411621093750e+01 3.669438934326171875e+01 1.359530029296875000e+02
2.445460319519042969e+00 1.539748764038085938e+01 1.820887603759765625e+02
8.357698440551757812e+00 1.029014110565185547e+01 1.852314147949218750e+02
3.064771461486816406e+01 3.412683486938476562e+01 1.286149291992187500e+02
3.162158012390136719e+01 1.389855098724365234e+01 9.091889953613281250e+01
4.001641464233398438e+01 3.063822746276855469e+01 1.502581939697265625e+02
3.880110931396484375e+01 3.554110336303710938e+01 1.383806762695312500e+02
2.550567626953125000e+01 1.674890136718750000e+01 1.111242523193359375e+02
2.181122970581054688e+01 1.432584285736083984e+01 1.366614379882812500e+02
1.818717765808105469e+01 2.539053726196289062e+01 1.936585693359375000e+02
1.568532371520996094e+01 1.628736305236816406e+01 1.899282226562500000e+02
-8.246556282043457031e+00 3.669448089599609375e+01 1.111173782348632812e+02
3.786867904663085938e+01 3.546685028076171875e+01 1.501471099853515625e+02
2.750734329223632812e+01 2.368887329101562500e+01 1.260079727172851562e+02
8.170903205871582031e+00 1.033530998229980469e+01 1.850713958740234375e+02
2.966610145568847656e+01 2.464081954956054688e+01 1.493899688720703125e+02
-1.608158493041992188e+01 1.992103195190429688e+01 1.640983123779296875e+02
3.017864799499511719e+01 2.394725990295410156e+01 1.523709106445312500e+02
-5.557754039764404297e+00 3.951956558227539062e+01 1.021387100219726562e+02
2.353740501403808594e+01 3.314137697219848633e+00 2.413450241088867188e+00
-8.943632125854492188e+00 1.615554618835449219e+01 1.520510864257812500e+02
-9.780926704406738281e+00 2.116002273559570312e+01 1.314029693603515625e+02
4.105239486694335938e+01 3.170448875427246094e+01 1.445747222900390625e+02
3.124524497985839844e+01 2.449703788757324219e+01 1.629746093750000000e+02
1.899759101867675781e+01 1.291310691833496094e+01 1.078066635131835938e+02
-2.304211044311523438e+01 2.496805572509765625e+01 1.359393310546875000e+02
1.184252166748046875e+01 1.938115882873535156e+01 1.675577087402343750e+02
3.328121566772460938e+01 2.477498626708984375e+01 1.455127105712890625e+02
2.428391647338867188e+01 1.648083877563476562e+01 1.148972625732421875e+02
-1.053700447082519531e+01 2.234101295471191406e+01 1.317180786132812500e+02
3.688274002075195312e+01 3.718661117553710938e+01 1.514505004882812500e+02
4.081835174560546875e+01 3.192927169799804688e+01 1.453099670410156250e+02
2.460948753356933594e+01 1.551583480834960938e+01 1.036806411743164062e+02
3.773131561279296875e+01 3.569849014282226562e+01 1.456738433837890625e+02
1.512113285064697266e+01 4.213990402221679688e+01 1.319820709228515625e+02
-8.535232543945312500e+00 1.728966522216796875e+01 1.188792343139648438e+02
-1.345636081695556641e+01 1.179903316497802734e+01 1.013691329956054688e+02
-1.573622417449951172e+01 1.986384963989257812e+01 1.650501861572265625e+02
2.595619201660156250e+01 2.451569366455078125e+01 7.725201416015625000e+01
2.703908157348632812e+01 3.455605316162109375e+01 1.173412857055664062e+02
-7.479547977447509766e+00 3.870367431640625000e+01 1.066493606567382812e+02
3.840187454223632812e+01 3.342877578735351562e+01 1.472111206054687500e+02
3.783857727050781250e+01 2.715475082397460938e+01 1.433355102539062500e+02
4.046305179595947266e+00 1.875535011291503906e+01 1.786443176269531250e+02
-9.263895034790039062e+00 3.688117218017578125e+01 1.061163940429687500e+02
2.346599197387695312e+01 2.962404060363769531e+01 7.143094635009765625e+01
2.097462844848632812e+01 1.318895626068115234e+01 1.112937622070312500e+02
3.860433197021484375e+01 3.323860931396484375e+01 1.472657623291015625e+02
2.458143615722656250e+01 1.670277214050292969e+01 1.397699432373046875e+02
-5.321190834045410156e+00 1.637472534179687500e+01 1.403378448486328125e+02
2.543422889709472656e+01 3.586814498901367188e+01 1.204688568115234375e+02
-2.378961324691772461e+00 1.331418991088867188e+01 1.397468109130859375e+02
3.848131942749023438e+01 3.367031097412109375e+01 1.454372711181640625e+02
2.599485778808593750e+01 1.660531234741210938e+01 1.034155349731445312e+02
-1.272051048278808594e+01 1.867361068725585938e+01 1.615871429443359375e+02
2.371316909790039062e+01 1.422028827667236328e+01 1.009767913818359375e+02
2.335154533386230469e+01 1.578889274597167969e+01 1.112918624877929688e+02
6.428228020668029785e-01 2.444667625427246094e+01 1.752194213867187500e+02
2.593344116210937500e+01 1.951321601867675781e+01 1.141214599609375000e+02
3.331082916259765625e+01 1.767609214782714844e+01 9.467472839355468750e+01
1.798272705078125000e+01 2.447572135925292969e+01 1.922705383300781250e+02
1.720099639892578125e+01 1.193588447570800781e+01 1.070349044799804688e+02
2.443574666976928711e+00 1.608547210693359375e+01 1.816500091552734375e+02
1.547015380859375000e+01 2.620472717285156250e+01 1.788582305908203125e+02
7.911548614501953125e+00 1.129417037963867188e+01 1.830634918212890625e+02
1.719750595092773438e+01 1.366592121124267578e+01 4.900288105010986328e+00
-1.362404155731201172e+01 1.786299705505371094e+01 1.085145874023437500e+02
7.191276550292968750e+00 4.238194274902343750e+01 1.090985183715820312e+02
1.613954162597656250e+01 1.149147129058837891e+01 1.071776046752929688e+02
1.839432716369628906e+01 1.140726947784423828e+01 9.141384887695312500e+01
1.347062683105468750e+01 4.134076690673828125e+01 1.105324630737304688e+02
-3.252214908599853516e+00 1.178697109222412109e+01 1.033381729125976562e+02
1.527863216400146484e+01 1.600864982604980469e+01 1.918163757324218750e+02
3.253924942016601562e+01 2.425005340576171875e+01 1.581867980957031250e+02
1.619813346862792969e+01 1.700998115539550781e+01 1.908930053710937500e+02
2.260433435440063477e+00 1.613812255859375000e+01 1.821998901367187500e+02
1.904691696166992188e+01 1.259185791015625000e+01 1.072776184082031250e+02
2.142096710205078125e+01 1.427809810638427734e+01 1.351196136474609375e+02
-1.472666358947753906e+01 3.236784744262695312e+01 1.384871215820312500e+02
-1.036230278015136719e+01 1.830582809448242188e+01 1.613349456787109375e+02
2.552041435241699219e+01 3.550164413452148438e+01 1.354674682617187500e+02
9.082059860229492188e+00 1.173790073394775391e+01 1.927419586181640625e+02
-6.343967437744140625e+00 1.928857040405273438e+01 6.187847518920898438e+01
2.657970046997070312e+01 1.731777000427246094e+01 1.034734039306640625e+02
1.920182228088378906e+01 1.929214859008789062e+01 1.203800201416015625e+01
3.249250793457031250e+01 2.440022468566894531e+01 1.606797637939453125e+02
-9.616336822509765625e+00 1.938866996765136719e+01 1.648547058105468750e+02
-1.192356395721435547e+01 1.364899063110351562e+01 1.030621185302734375e+02
3.312474822998046875e+01 2.497497749328613281e+01 1.594530639648437500e+02
-1.279700088500976562e+01 1.859493827819824219e+01 1.611385498046875000e+02
6.825170516967773438e+00 4.112285995483398438e+01 1.170926971435546875e+02
3.761729812622070312e+01 3.603168106079101562e+01 1.469727630615234375e+02
2.565829658508300781e+01 1.690652465820312500e+01 1.110635528564453125e+02
2.254585456848144531e+01 1.531156349182128906e+01 1.319916229248046875e+02
2.150799560546875000e+01 1.403444194793701172e+01 1.358590240478515625e+02
-1.347913360595703125e+01 1.703764724731445312e+01 1.160549774169921875e+02
-2.211854934692382812e+00 1.151257324218750000e+01 9.537017059326171875e+01
3.308097839355468750e+01 3.647852325439453125e+01 1.358689727783203125e+02
3.451069831848144531e+00 1.066622447967529297e+01 1.110827636718750000e+02
-6.992217302322387695e-01 1.061580657958984375e+01 1.178935852050781250e+02
1.524824905395507812e+01 4.195348358154296875e+01 1.329640808105468750e+02
-8.889316558837890625e+00 1.969245910644531250e+01 1.320456390380859375e+02
2.211221122741699219e+01 5.571032047271728516e+00 3.419131755828857422e+00
2.692468643188476562e+01 1.803777694702148438e+01 1.039248809814453125e+02
-6.100498199462890625e+00 3.732818603515625000e+01 1.109795227050781250e+02
3.137888717651367188e+01 2.379050827026367188e+01 1.062057571411132812e+02
3.547784566879272461e+00 1.158968257904052734e+01 1.930548248291015625e+02
8.678998947143554688e+00 1.034035015106201172e+01 1.856663513183593750e+02
1.673980331420898438e+01 2.452425193786621094e+01 1.867706451416015625e+02
6.320279121398925781e+00 1.039409923553466797e+01 1.156497268676757812e+02
2.557041168212890625e+01 1.883361244201660156e+01 1.137582855224609375e+02
3.802401733398437500e+01 3.503183746337890625e+01 1.498213806152343750e+02
6.005224704742431641e+00 1.033947467803955078e+01 1.155464401245117188e+02
2.653027915954589844e+01 3.535776138305664062e+01 1.178221664428710938e+02
1.016272163391113281e+01 1.138026618957519531e+01 1.808712005615234375e+02
-1.658100700378417969e+01 3.301410675048828125e+01 1.389610595703125000e+02
6.007053256034851074e-01 1.005396556854248047e+01 1.185469055175781250e+02
2.715062522888183594e+01 1.785502052307128906e+01 1.031115875244140625e+02
1.510034847259521484e+01 4.159183502197265625e+01 1.102127685546875000e+02
3.352184295654296875e+01 1.786964797973632812e+01 9.559432220458984375e+01
3.811475372314453125e+01 3.330118942260742188e+01 1.547011260986328125e+02
3.964699983596801758e+00 1.861626434326171875e+01 1.787858428955078125e+02
3.175748252868652344e+01 3.670923233032226562e+01 1.359328613281250000e+02
1.550477504730224609e+01 4.086267852783203125e+01 1.115339202880859375e+02
3.342976760864257812e+01 2.478981971740722656e+01 1.459388427734375000e+02
2.990616989135742188e+01 2.424000167846679688e+01 1.165224533081054688e+02
-1.289315319061279297e+01 1.280049896240234375e+01 1.052283554077148438e+02
-4.782728195190429688e+00 1.256596946716308594e+01 1.157864151000976562e+02
-1.744386482238769531e+01 3.298003005981445312e+01 1.387633056640625000e+02
-1.332160472869873047e+00 2.374672317504882812e+01 1.723584289550781250e+02
2.865445137023925781e+01 2.776916313171386719e+01 1.122912673950195312e+02
-5.851173877716064453e+00 3.709705734252929688e+01 1.114365539550781250e+02
3.602482604980468750e+01 1.829159355163574219e+01 1.016859741210937500e+02
3.795814514160156250e+01 3.366997528076171875e+01 1.522466735839843750e+02
-2.041767120361328125e+01 2.154824447631835938e+01 1.540760040283203125e+02
3.543543624877929688e+01 3.232179260253906250e+01 1.671212615966796875e+02
3.116883659362792969e+01 2.386467361450195312e+01 1.605767974853515625e+02
1.009514999389648438e+01 2.459063911437988281e+01 5.347677612304687500e+01
1.011584949493408203e+01 1.926352500915527344e+01 1.675900421142578125e+02
-9.567124366760253906e+00 1.832303237915039062e+01 1.200093688964843750e+02
1.382372665405273438e+01 2.725040817260742188e+01 1.822971496582031250e+02
-1.463066577911376953e+00 1.188940143585205078e+01 1.082386093139648438e+02
2.610709381103515625e+01 4.052301025390625000e+01 1.630507354736328125e+02
3.127112388610839844e+01 2.369232368469238281e+01 1.597695617675781250e+02
1.959912490844726562e+01 1.222206783294677734e+01 1.451551666259765625e+02
-1.078291773796081543e+00 1.190928268432617188e+01 1.433057861328125000e+02
3.848754501342773438e+01 2.907463455200195312e+01 1.522204589843750000e+02
1.444692516326904297e+01 2.817659759521484375e+01 1.804901580810546875e+02
3.027560424804687500e+01 1.544951629638671875e+01 1.003548431396484375e+02
1.321991920471191406e+00 2.490112686157226562e+01 1.846867065429687500e+02
2.692613792419433594e+01 1.948584556579589844e+01 1.093271713256835938e+02
-1.126958751678466797e+01 1.805004501342773438e+01 1.583770904541015625e+02
2.750169944763183594e+01 3.058827781677246094e+01 1.068753585815429688e+02
1.924004745483398438e+01 3.483135604858398438e+01 1.748108825683593750e+02
-7.643692970275878906e+00 1.783983421325683594e+01 1.423168334960937500e+02
5.616807460784912109e+00 1.320602893829345703e+01 1.793925170898437500e+02
-1.620849990844726562e+01 3.285484695434570312e+01 1.384688720703125000e+02
3.756614685058593750e+01 2.713763618469238281e+01 1.518460998535156250e+02
1.343106746673583984e+01 2.905208587646484375e+01 1.805423889160156250e+02
3.853548049926757812e+01 3.256233596801757812e+01 1.579338531494140625e+02
1.999752163887023926e+00 1.277754306793212891e+01 1.927858276367187500e+02
3.850081634521484375e+01 2.888852310180664062e+01 1.499309387207031250e+02
-1.508052444458007812e+01 2.596109962463378906e+01 9.516009521484375000e+01
3.766810607910156250e+01 3.603221893310546875e+01 1.465001831054687500e+02
7.394989013671875000e+00 4.080863189697265625e+01 1.418159179687500000e+02
2.664703369140625000e+01 1.810781288146972656e+01 1.045810241699218750e+02
-1.108441925048828125e+01 1.949843597412109375e+01 1.130771942138671875e+02
-1.054402923583984375e+01 1.083279228210449219e+01 9.681589508056640625e+01
-7.385098457336425781e+00 1.521410465240478516e+01 1.139086303710937500e+02
8.960223197937011719e+00 1.027796936035156250e+01 1.896955261230468750e+02
-1.458543682098388672e+01 2.225106620788574219e+01 1.082010498046875000e+02
3.314382553100585938e+01 2.496327781677246094e+01 1.589590759277343750e+02
-1.447693538665771484e+01 3.136378860473632812e+01 9.682701110839843750e+01
-1.935625457763671875e+01 2.049550819396972656e+01 1.568794860839843750e+02
-1.132421779632568359e+01 3.033857917785644531e+01 8.476811218261718750e+01
-1.153560161590576172e+01 9.971734046936035156e+00 8.918817138671875000e+01
3.818595504760742188e+01 2.781122589111328125e+01 1.468297576904296875e+02
6.807420730590820312e+00 1.373847103118896484e+01 1.557673339843750000e+02
3.827455139160156250e+01 3.025226020812988281e+01 1.571133270263671875e+02
3.808306503295898438e+01 3.091521453857421875e+01 1.589782257080078125e+02
-8.096997261047363281e+00 1.644692611694335938e+01 1.587812500000000000e+02
-2.674606800079345703e+00 3.416430664062500000e+01 8.701743316650390625e+01
3.699282073974609375e+01 2.574493980407714844e+01 1.395520019531250000e+02
1.757982254028320312e+01 6.932816028594970703e+00 -6.081466674804687500e-01
3.868041992187500000e+01 3.042285346984863281e+01 1.556931457519531250e+02
8.215004920959472656e+00 1.911841392517089844e+01 1.740897979736328125e+02
2.779753875732421875e+01 2.264258766174316406e+01 1.157323760986328125e+02
-1.011163741350173950e-01 1.127585697174072266e+01 1.386516571044921875e+02
3.641579437255859375e+01 3.657275009155273438e+01 1.410431976318359375e+02
1.491991138458251953e+01 2.629817390441894531e+01 1.814548034667968750e+02
-1.491615200042724609e+01 2.506995391845703125e+01 1.314221496582031250e+02
3.801910400390625000e+01 3.532502365112304688e+01 1.483060150146484375e+02
2.584194564819335938e+01 1.937147140502929688e+01 1.140352249145507812e+02
-3.568295478820800781e+00 1.148232936859130859e+01 9.652949523925781250e+01
3.852917480468750000e+01 3.597715377807617188e+01 1.386929168701171875e+02
-1.238352680206298828e+01 1.189186573028564453e+01 8.682127380371093750e+01
2.143625831604003906e+01 3.016826057434082031e+01 -1.522719144821166992e+00
8.687580108642578125e+00 1.025317573547363281e+01 1.854715118408203125e+02
-7.293534755706787109e+00 3.587749481201171875e+01 1.338959197998046875e+02
4.073480224609375000e+01 3.189352989196777344e+01 1.457751159667968750e+02
2.097152137756347656e+01 1.335165882110595703e+01 1.061125335693359375e+02
