-8.397450298070907593e-02 8.048090338706970215e-02 2.250060066580772400e-02
-9.042359888553619385e-02 1.160340011119842529e-01 2.730849944055080414e-02
-6.923890113830566406e-02 1.496289968490600586e-01 -4.021110013127326965e-02
-6.108440086245536804e-02 3.359819948673248291e-02 -7.475079968571662903e-03
-4.271470010280609131e-02 7.107049971818923950e-02 -1.769660040736198425e-02
-2.749630063772201538e-02 1.001939997076988220e-01 4.348739981651306152e-02
2.397689968347549438e-02 6.722430139780044556e-02 4.514550045132637024e-02
5.005039856769144535e-04 5.197310075163841248e-02 5.340940132737159729e-02
-6.949459761381149292e-02 9.020429849624633789e-02 4.222510010004043579e-02
-6.524640321731567383e-02 1.541139930486679077e-01 1.570240012370049953e-03
-5.587010085582733154e-02 1.543110013008117676e-01 2.231130003929138184e-02
-5.749529972672462463e-02 1.537089943885803223e-01 2.901910059154033661e-02
6.958149839192628860e-03 3.409529849886894226e-02 -2.049019932746887207e-02
-7.036670297384262085e-02 1.425440013408660889e-01 -1.049320027232170105e-02
4.328280221670866013e-03 5.825230106711387634e-02 -3.141840174794197083e-02
-7.018449902534484863e-02 1.584829986095428467e-01 -4.653740208595991135e-03
-6.850620359182357788e-02 1.420660018920898438e-01 -9.828469716012477875e-03
-5.684309825301170349e-02 9.269479662179946899e-02 -2.164009958505630493e-02
9.021099656820297241e-03 6.028459966182708740e-02 5.335690081119537354e-02
-7.277739793062210083e-02 1.686899960041046143e-01 -2.440810017287731171e-02
4.050260037183761597e-02 4.699280112981796265e-02 3.155240043997764587e-02
-6.077890098094940186e-02 1.212270036339759827e-01 4.194710031151771545e-02
-1.745730079710483551e-02 6.017240136861801147e-02 5.145309865474700928e-02
-3.677130118012428284e-02 8.716390281915664673e-02 -2.355930022895336151e-02
-4.410529881715774536e-02 1.290539950132369995e-01 3.614339977502822876e-03
7.243650034070014954e-03 7.823000103235244751e-02 -3.403120115399360657e-02
-8.706779778003692627e-02 1.110699996352195740e-01 2.035149931907653809e-02
-6.529650092124938965e-02 1.479319930076599121e-01 -2.710420079529285431e-02
-9.183549880981445312e-02 1.187610030174255371e-01 2.929469943046569824e-02
-3.179579973220825195e-02 1.667820066213607788e-01 -5.768700037151575089e-03
-6.554710119962692261e-02 1.545220017433166504e-01 2.885220106691122055e-03
-7.703699916601181030e-02 1.112949997186660767e-01 -4.682300146669149399e-03
1.378669962286949158e-02 3.776330128312110901e-02 4.433609917759895325e-02
-7.131040096282958984e-02 1.643829941749572754e-01 -1.526369992643594742e-02
-5.265149846673011780e-02 5.043920129537582397e-02 2.865250036120414734e-02
2.984800003468990326e-02 8.754149824380874634e-02 4.329260066151618958e-02
-3.384400159120559692e-02 1.712550073862075806e-01 -1.640459988266229630e-03
4.851159825921058655e-02 6.110110133886337280e-02 3.069180063903331757e-02
-5.447509884834289551e-02 9.876739978790283203e-02 4.295400157570838928e-02
-8.512099832296371460e-02 1.089269965887069702e-01 5.362770054489374161e-03
-5.832869932055473328e-02 5.974220111966133118e-02 2.192129939794540405e-02
-4.561340063810348511e-02 4.244710132479667664e-02 -1.327550038695335388e-02
-7.953950017690658569e-02 1.176860034465789795e-01 4.978559911251068115e-02
1.536160008981823921e-03 7.871700078248977661e-02 5.726829916238784790e-02
-5.349279940128326416e-02 8.482360094785690308e-02 4.534560069441795349e-02
-5.306680127978324890e-02 3.486580029129981995e-02 4.445540159940719604e-02
-4.813820123672485352e-02 3.761449828743934631e-02 4.557679966092109680e-02
-6.150680035352706909e-02 7.896649837493896484e-02 4.250299930572509766e-02
6.536500062793493271e-03 1.003729999065399170e-01 4.694480076432228088e-02
-2.636400051414966583e-02 3.596920147538185120e-02 -2.940499968826770782e-02
-4.149749875068664551e-02 4.513199999928474426e-02 4.144030064344406128e-02
-7.362920045852661133e-02 1.567479968070983887e-01 -1.469300012104213238e-03
-4.380289837718009949e-02 1.673790067434310913e-01 3.342719981446862221e-03
-1.082959957420825958e-02 8.554709702730178833e-02 -3.845470026135444641e-02
-3.215859830379486084e-02 3.492689877748489380e-02 4.720310121774673462e-02
-3.466219827532768250e-02 1.187879964709281921e-01 -1.163680013269186020e-02
-3.563280031085014343e-02 3.474089875817298889e-02 2.015659958124160767e-02
-6.150360032916069031e-02 8.041179925203323364e-02 4.301590099930763245e-02
-4.683209955692291260e-02 1.448860019445419312e-01 4.128919914364814758e-03
-4.222450032830238342e-02 1.482959985733032227e-01 -2.460289979353547096e-03
7.898589596152305603e-03 9.998779743909835815e-02 -2.188069932162761688e-02
-7.762009650468826294e-02 1.712840050458908081e-01 -3.689000010490417480e-02
-7.535489648580551147e-02 1.048839986324310303e-01 3.614230081439018250e-02
3.450369834899902344e-02 4.688480123877525330e-02 3.071939945220947266e-02
-7.797549664974212646e-02 1.597079932689666748e-01 -1.992559991776943207e-02
1.150089967995882034e-02 1.112560033798217773e-01 3.927280008792877197e-02
-3.329860046505928040e-02 3.847960010170936584e-02 -1.371479965746402740e-02
5.740709975361824036e-02 6.913430243730545044e-02 4.775689914822578430e-03
-4.655509814620018005e-02 4.471980035305023193e-02 -1.078050024807453156e-02
6.792639847844839096e-03 3.790239989757537842e-02 -7.044179830700159073e-03
-7.048069685697555542e-02 1.601999998092651367e-01 -7.686019875109195709e-03
-6.908109784126281738e-02 3.430239856243133545e-02 1.008190028369426727e-02
-3.977460041642189026e-02 8.268029987812042236e-02 -2.105939947068691254e-02
7.368559949100017548e-03 4.796370118856430054e-02 -2.732219919562339783e-02
-1.371829956769943237e-02 6.287629902362823486e-02 -3.683359920978546143e-02
-4.349299892783164978e-02 1.057030037045478821e-01 4.086679965257644653e-02
-3.670040145516395569e-02 6.808040291070938110e-02 -1.571240089833736420e-02
-5.048859864473342896e-02 9.462050348520278931e-02 4.453630000352859497e-02
-1.053330022841691971e-02 4.579930007457733154e-02 4.835160076618194580e-02
1.813999935984611511e-02 7.132449746131896973e-02 5.084260180592536926e-02
2.021690085530281067e-02 5.919060111045837402e-02 4.846049845218658447e-02
-6.186300143599510193e-02 9.536989778280258179e-02 -1.863319985568523407e-02
3.888940066099166870e-02 6.032700091600418091e-02 3.148330003023147583e-02
-3.346579894423484802e-02 3.962169960141181946e-02 5.008370056748390198e-02
-6.955610215663909912e-02 3.407829999923706055e-02 8.397930301725864410e-03
5.348439794033765793e-03 5.961610004305839539e-02 -3.098060004413127899e-02
-5.566349998116493225e-02 1.409959942102432251e-01 2.999860048294067383e-02
-5.400450155138969421e-02 1.365199983119964600e-01 -2.348569920286536217e-03
-8.604499697685241699e-02 1.418630033731460571e-01 7.200549822300672531e-03
-7.975660264492034912e-02 7.463800162076950073e-02 -4.714129900094121695e-04
-6.490159779787063599e-02 1.180189996957778931e-01 -9.233520366251468658e-03
-5.550180003046989441e-02 9.877129644155502319e-02 4.328339919447898865e-02
-2.418610081076622009e-02 3.517130017280578613e-02 5.212710052728652954e-02
-7.509209960699081421e-02 1.568560004234313965e-01 -2.294199913740158081e-02
-3.396829962730407715e-02 4.857910051941871643e-02 4.044060036540031433e-02
-4.947189986705780029e-02 6.430439651012420654e-02 3.566280007362365723e-02
1.948920078575611115e-02 9.341739863157272339e-02 4.761860147118568420e-02
-4.430039972066879272e-02 1.303340047597885132e-01 9.462989866733551025e-03
1.149810012429952621e-02 6.580629944801330566e-02 5.347159877419471741e-02
1.737019978463649750e-02 5.069579929113388062e-02 -2.545659989118576050e-02
-5.300689861178398132e-02 1.534930020570755005e-01 1.322530023753643036e-02
-4.518409818410873413e-02 1.698299944400787354e-01 -4.971240181475877762e-03
-6.527870148420333862e-02 1.738969981670379639e-01 -6.049570068717002869e-02
-7.748310267925262451e-02 1.514389961957931519e-01 -4.899600055068731308e-03
-9.097920358180999756e-02 1.430169939994812012e-01 2.663460001349449158e-02
-9.120590239763259888e-02 1.488199979066848755e-01 1.514570042490959167e-02
-3.552009910345077515e-02 1.697299927473068237e-01 -1.146669965237379074e-04
-2.316750027239322662e-02 1.844359934329986572e-01 -1.606239937245845795e-02
3.111689910292625427e-02 4.457870125770568848e-02 3.060300089418888092e-02
4.250530153512954712e-02 5.138149857521057129e-02 3.261540085077285767e-02
-6.024640053510665894e-02 1.446679979562759399e-01 -3.295759903267025948e-03
5.738480016589164734e-02 6.703089922666549683e-02 2.923649968579411507e-03
-7.089649885892868042e-02 3.413230180740356445e-02 6.291689816862344742e-03
-8.735469728708267212e-02 9.410499781370162964e-02 5.379229784011840820e-03
1.488470006734132767e-02 3.780329972505569458e-02 4.412860050797462463e-02
-6.689549982547760010e-02 1.165539994835853577e-01 -9.222609922289848328e-03
-8.416319638490676880e-02 1.115799993276596069e-01 2.274970058351755142e-03
5.762879736721515656e-04 3.533869981765747070e-02 1.797189936041831970e-02
-1.450680010020732880e-02 7.300960272550582886e-02 5.540579929947853088e-02
-6.955009698867797852e-02 3.784810006618499756e-02 -1.498689991421997547e-03
-8.979229629039764404e-02 1.446920037269592285e-01 1.313900016248226166e-02
-8.750730007886886597e-02 9.546980261802673340e-02 3.417989937588572502e-03
-4.446069896221160889e-02 9.026879817247390747e-02 4.284960031509399414e-02
-2.669779956340789795e-02 9.177009761333465576e-02 4.601490125060081482e-02
-7.633859664201736450e-02 1.617989987134933472e-01 -1.529529970139265060e-02
-6.353860348463058472e-02 1.517309993505477905e-01 -3.617550013586878777e-03
-2.708049956709146500e-03 3.870670124888420105e-02 3.357130102813243866e-03
9.831300005316734314e-03 6.446179747581481934e-02 5.455350130796432495e-02
-1.551350019872188568e-02 6.310570240020751953e-02 5.333450064063072205e-02
-4.166970029473304749e-02 3.774509951472282410e-02 -2.724689990282058716e-02
-6.731460243463516235e-02 4.466820135712623596e-02 6.020009983330965042e-03
1.589809916913509369e-02 5.767640098929405212e-02 4.920729994773864746e-02
-7.087919861078262329e-02 1.150309965014457703e-01 -8.175689727067947388e-03
-1.747649908065795898e-02 5.144369974732398987e-02 4.796700179576873779e-02
6.330579984933137894e-03 5.679880082607269287e-02 -3.080159984529018402e-02
7.074090186506509781e-03 3.480070084333419800e-02 2.340370044112205505e-02
4.350949823856353760e-02 5.278319865465164185e-02 3.254950046539306641e-02
-6.086929887533187866e-02 9.824129939079284668e-02 -1.849099993705749512e-02
1.736919954419136047e-02 4.766320064663887024e-02 -2.351149916648864746e-02
-5.550130084156990051e-02 5.478059872984886169e-02 8.669409900903701782e-03
-8.484759926795959473e-02 8.459659665822982788e-02 2.548730000853538513e-02
-7.883570343255996704e-02 1.486819982528686523e-01 -1.868580002337694168e-03
-5.518389865756034851e-02 1.402619928121566772e-01 -2.460390096530318260e-03
-2.875399962067604065e-02 6.346890330314636230e-02 -2.843390032649040222e-02
-2.160999923944473267e-02 1.580570042133331299e-01 -8.998890407383441925e-03
-2.933260053396224976e-02 1.543859988451004028e-01 -3.605749923735857010e-03
-6.393239647150039673e-02 1.470489948987960815e-01 -1.890929974615573883e-02
-1.073960028588771820e-02 7.136529684066772461e-02 -3.752779960632324219e-02
7.193860132247209549e-03 8.101040124893188477e-02 -3.368740156292915344e-02
-8.587249554693698883e-03 3.623969852924346924e-02 -2.527499943971633911e-02
1.645250013098120689e-03 3.481319919228553772e-02 4.065679851919412613e-03
4.751950129866600037e-02 5.835210159420967102e-02 3.159489855170249939e-02
2.318320097401738167e-03 5.833429843187332153e-02 -3.241650015115737915e-02
-5.249759927392005920e-02 9.177110344171524048e-02 4.415810108184814453e-02
-6.261619925498962402e-02 1.424880027770996094e-01 3.762479871511459351e-02
-7.765080034732818604e-02 1.514409929513931274e-01 -3.886339953169226646e-03
-7.150900363922119141e-02 1.054940000176429749e-01 3.756989911198616028e-02
-1.434400025755167007e-02 1.830949932336807251e-01 -2.260280027985572815e-02
-8.491209708154201508e-03 1.030270010232925415e-01 4.370220005512237549e-02
-4.918729886412620544e-02 1.655369997024536133e-01 -3.925709985196590424e-03
-7.171329855918884277e-02 7.152450084686279297e-02 -7.522290106862783432e-03
2.895019948482513428e-02 8.888450264930725098e-02 4.376100003719329834e-02
-3.254500031471252441e-02 8.211719989776611328e-02 -2.955020032823085785e-02
-6.419149786233901978e-02 1.792290061712265015e-01 -5.729880183935165405e-02
-7.569830119609832764e-02 1.485970020294189453e-01 -1.386569999158382416e-02
-5.698470026254653931e-02 1.538009941577911377e-01 2.774230018258094788e-02
-7.074680179357528687e-02 1.619790047407150269e-01 -1.070899982005357742e-02
-6.164519861340522766e-02 1.395529955625534058e-01 3.544329851865768433e-02
-3.358700126409530640e-02 3.486080095171928406e-02 4.524470120668411255e-02
-6.650959700345993042e-02 9.448319673538208008e-02 4.251850023865699768e-02
-4.649420082569122314e-02 1.001249998807907104e-01 4.225369915366172791e-02
-3.124069981276988983e-02 5.109269917011260986e-02 3.906429931521415710e-02
-9.430300444364547729e-03 3.793720155954360962e-02 -1.592420041561126709e-02
-1.565000042319297791e-02 1.015100032091140747e-01 -2.356869913637638092e-02
1.663820073008537292e-02 1.233019977807998657e-01 3.013169951736927032e-02
1.534380018711090088e-02 5.224420130252838135e-02 -2.716189995408058167e-02
4.278689995408058167e-02 6.116750091314315796e-02 -3.340299939736723900e-03
4.917200189083814621e-03 3.399709984660148621e-02 9.166610427200794220e-03
-6.764200329780578613e-02 1.505029946565628052e-01 -4.058900102972984314e-02
-5.482140183448791504e-02 1.438689976930618286e-01 2.953889966011047363e-02
-2.945340052247047424e-02 3.825040161609649658e-02 5.322489887475967407e-02
-2.737629972398281097e-02 1.125039979815483093e-01 -1.709870062768459320e-02
-4.850549995899200439e-02 4.907960072159767151e-02 3.814240172505378723e-02
-5.156999826431274414e-02 6.577250361442565918e-02 3.575230017304420471e-02
-6.289979815483093262e-02 1.208999976515769958e-01 -8.842079900205135345e-03
-6.063349917531013489e-02 1.226539984345436096e-01 4.216219857335090637e-02
9.798759594559669495e-03 6.310889869928359985e-02 5.451180040836334229e-02
-5.921019986271858215e-02 5.959510058164596558e-02 2.115440089255571365e-03
-6.516399979591369629e-02 1.473570019006729126e-01 -2.393309958279132843e-02
-5.936750024557113647e-02 1.453649997711181641e-01 3.527909889817237854e-02
-5.149770155549049377e-02 9.176939725875854492e-02 4.415149986743927002e-02
-8.169469982385635376e-02 1.134819984436035156e-01 4.653989896178245544e-02
-4.661519825458526611e-02 1.457660049200057983e-01 -1.787320070434361696e-04
-4.719049856066703796e-02 1.565040051937103271e-01 8.878669701516628265e-03
1.043539959937334061e-02 3.473719954490661621e-02 2.595949918031692505e-02
-1.166019961237907410e-02 1.684039980173110962e-01 -1.704530045390129089e-02
-5.681170150637626648e-02 1.350439935922622681e-01 -4.893159959465265274e-03
1.436819974333047867e-02 7.674939930438995361e-02 5.422740057110786438e-02
-3.228849917650222778e-02 1.776909977197647095e-01 -5.361290182918310165e-03
-8.736509829759597778e-02 9.275609999895095825e-02 4.436309915035963058e-03
5.218239966779947281e-04 8.011460304260253906e-02 5.736929923295974731e-02
2.358609996736049652e-02 3.527769818902015686e-02 1.543159969151020050e-02
-1.349699962884187698e-02 8.979599922895431519e-02 5.682430043816566467e-02
-8.632349967956542969e-02 1.103809997439384460e-01 2.036960050463676453e-02
2.787210047245025635e-02 5.228359997272491455e-02 -1.975429989397525787e-02
-3.217320144176483154e-02 4.611609876155853271e-02 4.578129947185516357e-02
-2.782749943435192108e-02 1.581279933452606201e-01 -8.548920050088781863e-06
2.220319956541061401e-02 3.520549833774566650e-02 2.430970035493373871e-02
-3.284030035138130188e-02 3.485190123319625854e-02 -1.958359964191913605e-02
-7.087340205907821655e-02 1.164830029010772705e-01 -8.013130165636539459e-03
-1.484750024974346161e-02 1.628649979829788208e-01 -1.594210043549537659e-02
-1.450049970299005508e-02 8.424860239028930664e-02 5.698199942708015442e-02
-8.407989889383316040e-02 1.432230025529861450e-01 4.164829850196838379e-03
-6.638649851083755493e-02 3.889970108866691589e-02 3.482940047979354858e-02
4.535859823226928711e-02 5.477920174598693848e-02 -6.106810178607702255e-03
-6.079410016536712646e-02 1.439529955387115479e-01 3.676550090312957764e-02
-5.349089950323104858e-02 1.015169993042945862e-01 4.199489951133728027e-02
-3.682139888405799866e-02 1.653099954128265381e-01 -7.291859947144985199e-04
2.533400058746337891e-02 4.355010017752647400e-02 3.811059892177581787e-02
-6.360390037298202515e-02 4.456340149044990540e-02 3.268460184335708618e-02
-4.849340021610260010e-02 4.776100069284439087e-02 3.950510174036026001e-02
-5.528809875249862671e-02 1.477209925651550293e-01 2.834939956665039062e-02
-7.166930288076400757e-02 1.474609971046447754e-01 -2.819710038602352142e-02
-3.836800158023834229e-02 4.570069909095764160e-02 -2.297309972345829010e-02
-8.494579792022705078e-02 8.179850131273269653e-02 4.489419981837272644e-03
-8.989840000867843628e-02 1.392010003328323364e-01 1.421319972723722458e-02
8.485999889671802521e-03 5.327590182423591614e-02 5.214580148458480835e-02
-6.443519890308380127e-02 4.240969941020011902e-02 3.024809993803501129e-02
2.468270063400268555e-02 3.479779884219169617e-02 1.790970005095005035e-02
-4.071540012955665588e-02 4.620460048317909241e-02 -1.832200028002262115e-02
1.726450026035308838e-02 7.132080197334289551e-02 5.133299902081489563e-02
-5.149310082197189331e-02 1.564320027828216553e-01 1.047160010784864426e-02
-1.065819989889860153e-02 5.271760001778602600e-02 -3.329540044069290161e-02
-6.788309663534164429e-02 1.552519947290420532e-01 5.815160111524164677e-04
-6.851469725370407104e-02 9.304759651422500610e-02 4.228410124778747559e-02
-3.000750020146369934e-02 3.375890105962753296e-02 -2.174839936196804047e-02
7.475629914551973343e-03 3.787840157747268677e-02 -8.760719560086727142e-03
-8.947460353374481201e-02 1.392789930105209351e-01 2.818189933896064758e-02
-7.727570086717605591e-02 1.486449986696243286e-01 -5.868799984455108643e-03
-5.252030119299888611e-02 5.814610049128532410e-02 2.615970000624656677e-02
-6.635739654302597046e-02 3.703660145401954651e-02 1.515480037778615952e-02
-8.960150182247161865e-02 1.364980041980743408e-01 2.420029975473880768e-02
-4.180059954524040222e-02 4.625789821147918701e-02 -1.529479958117008209e-02
-8.720900118350982666e-02 9.410730004310607910e-02 4.441990051418542862e-03
-4.650760069489479065e-02 1.607940047979354858e-01 7.111799903213977814e-03
-7.292799651622772217e-02 1.487230062484741211e-01 -3.278189897537231445e-02
-5.379220098257064819e-02 1.415099948644638062e-01 -1.138000050559639931e-03
-2.556880004703998566e-02 3.565980121493339539e-02 5.313859879970550537e-02
5.709860008209943771e-03 3.417539969086647034e-02 1.825050078332424164e-02
-5.245700106024742126e-02 1.446750015020370483e-01 1.836650073528289795e-02
-4.350849986076354980e-02 1.652269959449768066e-01 4.703729879111051559e-03
-2.633270062506198883e-02 1.114439964294433594e-01 -1.798430085182189941e-02
-6.457400321960449219e-02 4.185510054230690002e-02 3.169669955968856812e-02
-1.673080027103424072e-02 6.575469672679901123e-02 -3.771160170435905457e-02
-6.923250108957290649e-02 1.619540005922317505e-01 -1.159119978547096252e-02
4.418860189616680145e-03 3.613140061497688293e-02 -2.381639927625656128e-02
1.391629967838525772e-02 9.532420337200164795e-02 -2.492349967360496521e-02
-8.896420150995254517e-02 1.365170031785964966e-01 2.819819934666156769e-02
-9.318649768829345703e-03 8.625909686088562012e-02 -3.773149847984313965e-02
-9.096000343561172485e-02 1.488139927387237549e-01 1.415359973907470703e-02
-4.249490052461624146e-02 1.682180017232894897e-01 2.858770079910755157e-03
-6.310039758682250977e-02 3.805600106716156006e-02 4.290959984064102173e-02
-6.390109658241271973e-02 1.194579973816871643e-01 -8.936760015785694122e-03
-3.848079964518547058e-02 1.069850027561187744e-01 3.803899884223937988e-02
1.163780037313699722e-02 6.031979992985725403e-02 5.186630040407180786e-02
-7.047750055789947510e-02 1.146320030093193054e-01 5.104169994592666626e-02
-6.150420010089874268e-02 1.212430000305175781e-01 4.269240051507949829e-02
-4.849389940500259399e-02 7.472389936447143555e-02 4.241570085287094116e-02
-7.836560159921646118e-02 1.514589935541152954e-01 -8.847960270941257477e-04
-5.549589917063713074e-02 9.597949683666229248e-02 4.366109892725944519e-02
-6.077719852328300476e-02 1.460549980401992798e-01 -3.617459908127784729e-03
-5.122689902782440186e-02 1.507119983434677124e-01 1.351530011743307114e-02
-5.633439868688583374e-02 1.543709933757781982e-01 2.360880002379417419e-02
-7.859589904546737671e-02 1.526969969272613525e-01 1.184190041385591030e-03
4.010460153222084045e-02 4.668660089373588562e-02 3.138729929924011230e-02
-6.173120066523551941e-02 1.429270058870315552e-01 -5.658669862896203995e-03
-4.270660132169723511e-02 6.961490213871002197e-02 -1.702990010380744934e-02
-6.589879840612411499e-02 1.165810003876686096e-01 -9.612729772925376892e-03
-4.753439873456954956e-02 5.322999879717826843e-02 3.694429993629455566e-02
1.995909959077835083e-02 5.641270056366920471e-02 4.807249829173088074e-02
-3.561419993638992310e-02 4.932250082492828369e-02 -1.253169961273670197e-02
-1.549420040100812912e-02 7.727319747209548950e-02 5.643590167164802551e-02
-7.272920012474060059e-02 7.309570163488388062e-02 -8.876929990947246552e-03
1.052240002900362015e-02 9.900519996881484985e-02 4.832430183887481689e-02
5.432299897074699402e-02 6.417100131511688232e-02 -2.088790060952305794e-04
-7.005640119314193726e-02 1.624269932508468628e-01 -1.189630012959241867e-02
-7.584469765424728394e-02 1.513649970293045044e-01 -1.588270068168640137e-02
-5.747180059552192688e-02 1.563590019941329956e-01 1.012340001761913300e-02
1.500170025974512100e-02 5.766480043530464172e-02 4.966539889574050903e-02
-8.640370331704616547e-03 5.268840119242668152e-02 -3.307769820094108582e-02
-5.747430026531219482e-02 4.528829827904701233e-02 4.353319853544235229e-02
3.603709861636161804e-02 5.477020144462585449e-02 3.256870061159133911e-02
5.742819979786872864e-02 6.815849989652633667e-02 3.772420110180974007e-03
-2.448550052940845490e-02 4.614640027284622192e-02 5.160960182547569275e-02
-6.490270048379898071e-02 1.799450069665908813e-01 -5.757259950041770935e-02
-3.191009908914566040e-02 1.219689995050430298e-01 -6.959749851375818253e-03
-3.599559888243675232e-02 1.510760039091110229e-01 -2.025939989835023880e-03
-1.311209984123706818e-02 6.260590255260467529e-02 5.451330170035362244e-02
1.780690066516399384e-02 3.499789908528327942e-02 -5.927820224314928055e-03
-5.123379826545715332e-02 1.640959978103637695e-01 -1.929259975440800190e-03
-2.730380045250058174e-03 6.837350130081176758e-02 -3.471729904413223267e-02
-7.104650139808654785e-02 1.562779992818832397e-01 8.784069796092808247e-04
-7.768460363149642944e-02 1.638599932193756104e-01 -3.294609859585762024e-02
-6.947900354862213135e-02 1.231980025768280029e-01 5.306160077452659607e-02
-3.848529979586601257e-02 8.190009742975234985e-02 4.364139959216117859e-02
-8.020579814910888672e-02 7.596720010042190552e-02 -3.521099919453263283e-03
-8.561989665031433105e-02 1.446360051631927490e-01 7.172860205173492432e-03
-6.522790342569351196e-02 3.975220024585723877e-02 2.883720025420188904e-02
-2.601739950478076935e-02 3.510469943284988403e-02 -2.900829911231994629e-02
-4.649839922785758972e-02 1.015290021896362305e-01 4.191200062632560730e-02
-6.048630177974700928e-02 7.902240008115768433e-02 4.279400035738945007e-02
-9.178719669580459595e-02 1.433410048484802246e-01 1.716610044240951538e-02
-5.014789849519729614e-02 5.154120177030563354e-02 1.764399930834770203e-02
-6.598679721355438232e-02 4.180980101227760315e-02 -4.307319875806570053e-03
-5.568810179829597473e-02 1.231369972229003906e-01 -8.013269864022731781e-03
2.200130000710487366e-02 3.481949865818023682e-02 8.164090104401111603e-03
1.441099960356950760e-02 8.337330073118209839e-02 5.254530161619186401e-02
-8.618649840354919434e-02 9.266740083694458008e-02 2.427889965474605560e-03
-3.452260047197341919e-02 8.463150262832641602e-02 4.275510087609291077e-02
-1.347940042614936829e-02 5.596610158681869507e-02 5.120909959077835083e-02
-5.712769925594329834e-02 1.558690071105957031e-01 1.170509960502386093e-02
4.494939930737018585e-03 1.057569980621337891e-01 4.218510165810585022e-02
3.133359923958778381e-02 4.770220071077346802e-02 -6.754999980330467224e-03
2.478560060262680054e-02 4.497350007295608521e-02 3.907569870352745056e-02
-9.011419862508773804e-02 1.406500041484832764e-01 2.416850067675113678e-02
-8.289580047130584717e-02 1.513780057430267334e-01 4.225720185786485672e-03
-4.521459806710481644e-03 4.431869834661483765e-02 4.727340117096900940e-02
2.842440083622932434e-02 8.220030367374420166e-02 4.468309879302978516e-02
-3.149250149726867676e-02 9.321379661560058594e-02 4.442879930138587952e-02
-5.669330060482025146e-02 4.789829999208450317e-02 -3.385249990969896317e-03
7.484800182282924652e-03 9.768240153789520264e-02 4.943940043449401855e-02
-6.880260258913040161e-02 1.465190052986145020e-01 -2.585219964385032654e-02
-3.326670080423355103e-02 8.358749747276306152e-02 -2.653229981660842896e-02
-5.873540067113935947e-05 1.009740009903907776e-01 -2.293780073523521423e-02
-4.656599834561347961e-02 1.283680051565170288e-01 -1.562210032716393471e-03
3.422139957547187805e-02 8.136110007762908936e-02 -1.823809929192066193e-02
-7.401130348443984985e-02 1.413429975509643555e-01 -6.887829862534999847e-03
1.169980037957429886e-02 8.198510110378265381e-02 5.388950183987617493e-02
-2.749219909310340881e-02 4.976670071482658386e-02 4.547230154275894165e-02
2.527379896491765976e-03 7.167209684848785400e-02 5.618520081043243408e-02
-4.050629958510398865e-02 9.024170041084289551e-02 4.264630004763603210e-02
-1.601920090615749359e-02 1.045179963111877441e-01 -2.274860069155693054e-02
-7.198960334062576294e-02 1.399080008268356323e-01 -7.355830166488885880e-03
8.231219835579395294e-03 7.960499823093414307e-02 -3.357059881091117859e-02
-9.076029807329177856e-02 1.405850052833557129e-01 1.517830044031143188e-02
-5.799530190415680408e-04 3.618039935827255249e-02 -2.458979934453964233e-02
-2.448610030114650726e-03 6.058640033006668091e-02 5.536450073122978210e-02
-1.520640030503273010e-02 3.775870054960250854e-02 5.138039961457252502e-02
-8.889520168304443359e-02 1.378940045833587646e-01 2.719159983098506927e-02
-7.748899981379508972e-03 7.132390141487121582e-02 -3.661540150642395020e-02
-3.528039902448654175e-02 3.411550074815750122e-02 -1.938790082931518555e-02
-5.049850046634674072e-02 7.910100370645523071e-02 4.399869963526725769e-02
-4.347829893231391907e-02 6.909819692373275757e-02 4.148900136351585388e-02
-1.648519933223724365e-02 8.700039982795715332e-02 5.676160007715225220e-02
-6.964170187711715698e-02 4.225239902734756470e-02 2.690399996936321259e-03
-2.886350080370903015e-02 1.545709967613220215e-01 -3.558170050382614136e-03
-5.919479951262474060e-02 6.031560152769088745e-02 -5.222599720582365990e-04
2.342239953577518463e-02 5.190709978342056274e-02 -2.310479991137981415e-02
-4.919270053505897522e-02 1.492220014333724976e-01 1.115390006452798843e-02
-4.150009900331497192e-02 9.727089852094650269e-02 4.206689819693565369e-02
-6.720799952745437622e-02 4.479169845581054688e-02 3.688140073791146278e-03
-4.977310076355934143e-02 6.277920305728912354e-02 3.455270081758499146e-02
1.353629957884550095e-02 3.479409962892532349e-02 3.196439892053604126e-02
-4.981220141053199768e-02 1.416720002889633179e-01 4.399870056658983231e-03
-5.687009915709495544e-02 1.410759985446929932e-01 -3.369600046426057816e-03
-5.497150123119354248e-02 1.612460017204284668e-01 2.059390069916844368e-03
-3.451529890298843384e-02 7.806339859962463379e-02 -2.350169979035854340e-02
4.204580036457628012e-04 3.617199882864952087e-02 -2.446229942142963409e-02
-4.216510057449340820e-02 1.493010073900222778e-01 -4.122950136661529541e-03
-8.755309879779815674e-02 1.212299987673759460e-01 -6.928149960003793240e-04
7.507860194891691208e-03 5.183079838752746582e-02 5.198220163583755493e-02
-5.549430102109909058e-02 1.125129982829093933e-01 3.591020032763481140e-02
-5.248679965734481812e-02 9.596010297536849976e-02 4.368110001087188721e-02
-7.468009740114212036e-02 1.577039957046508789e-01 -5.566180218011140823e-03
2.147229947149753571e-02 8.786690235137939453e-02 4.902650043368339539e-02
-7.408709824085235596e-02 1.568730026483535767e-01 -2.591729909181594849e-02
-7.304649800062179565e-02 1.580909937620162964e-01 -4.193809814751148224e-03
2.686979994177818298e-02 4.489760100841522217e-02 3.680339828133583069e-02
5.926549900323152542e-03 3.396850079298019409e-02 1.485130004584789276e-02
-4.099130092072300613e-05 1.006399989128112793e-01 4.659070074558258057e-02
-7.649660110473632812e-02 1.175440028309822083e-01 5.204679816961288452e-02
-7.633189857006072998e-02 1.549399942159652710e-01 -3.874849993735551834e-03
3.345049917697906494e-03 3.726840019226074219e-02 -1.546930056065320969e-03
2.603369951248168945e-02 6.391909718513488770e-02 -2.256679907441139221e-02
5.170490127056837082e-03 3.503869846463203430e-02 2.280680090188980103e-02
-8.460540324449539185e-02 1.103599965572357178e-01 2.535999938845634460e-02
1.778070069849491119e-02 1.057099997997283936e-01 -1.794840022921562195e-02
-8.012449741363525391e-02 7.466679811477661133e-02 5.250339745543897152e-04
2.432990074157714844e-02 6.617379933595657349e-02 -2.398190088570117950e-02
-9.107220172882080078e-02 1.419589966535568237e-01 1.518779993057250977e-02
1.461789943277835846e-04 1.016490012407302856e-01 -2.276390045881271362e-02
3.311609849333763123e-02 7.956869900226593018e-02 -1.871070079505443573e-02
-8.579300343990325928e-02 8.187119662761688232e-02 6.484370213001966476e-03
-2.767910063266754150e-02 1.238999962806701660e-01 1.999199949204921722e-02
-2.662389911711215973e-02 4.635969921946525574e-02 -2.708340063691139221e-02
-5.689020082354545593e-02 1.012199968099594116e-01 -1.929939910769462585e-02
-3.578170016407966614e-02 3.510959818959236145e-02 1.799260079860687256e-02
6.503520067781209946e-03 5.471970140933990479e-02 5.294639989733695984e-02
-4.650269821286201477e-02 1.622560024261474609e-01 6.450280081480741501e-03
-2.248929999768733978e-02 4.620520025491714478e-02 5.230410024523735046e-02
-9.160050004720687866e-02 1.474889963865280151e-01 2.114469930529594421e-02
7.499749772250652313e-03 5.895670130848884583e-02 5.352859944105148315e-02
-4.291940107941627502e-02 8.989969640970230103e-02 -2.234919928014278412e-02
-8.785320073366165161e-02 1.270450055599212646e-01 4.646509885787963867e-02
-5.635619908571243286e-02 1.409929990768432617e-01 3.076289966702461243e-02
-2.579990029335021973e-02 4.228489845991134644e-02 5.373169854283332825e-02
5.333569832146167755e-03 5.534899979829788208e-02 -3.054960072040557861e-02
2.118400065228343010e-03 1.087189987301826477e-01 -2.026909962296485901e-02
-7.707569748163223267e-02 6.895700097084045410e-02 8.538939990103244781e-03
2.261110022664070129e-02 4.587170109152793884e-02 -1.784900017082691193e-02
-6.249440088868141174e-02 1.459909975528717041e-01 -7.581079844385385513e-03
-8.314420282840728760e-02 1.076110005378723145e-01 2.637670002877712250e-02
-8.107110112905502319e-02 7.609599828720092773e-02 -4.746369959320873022e-04
-7.508520036935806274e-02 1.749130040407180786e-01 -4.108769819140434265e-02
-4.048369824886322021e-02 8.182819932699203491e-02 4.291230067610740662e-02
-8.513680100440979004e-02 8.327990025281906128e-02 2.247380092740058899e-02
-5.340940132737159729e-02 1.508779972791671753e-01 2.340929955244064331e-02
1.326970010995864868e-02 6.033239886164665222e-02 5.070279911160469055e-02
-4.134900122880935669e-02 1.726689934730529785e-01 -6.974940188229084015e-03
2.822129987180233002e-02 8.755049854516983032e-02 4.443230107426643372e-02
1.117529999464750290e-02 7.664260268211364746e-02 5.484990030527114868e-02
-3.463489934802055359e-02 1.769959926605224609e-01 -9.991000406444072723e-03
-4.469490051269531250e-02 6.807129830121994019e-02 -1.593090035021305084e-02
-6.488910317420959473e-02 9.815009683370590210e-02 -1.701119914650917053e-02
-8.955930173397064209e-02 1.392900049686431885e-01 3.118669986724853516e-02
2.745329984463751316e-04 6.831640005111694336e-02 -3.385400027036666870e-02
-7.483009994029998779e-02 1.741710007190704346e-01 -3.958470001816749573e-02
-9.096069633960723877e-02 1.443769931793212891e-01 2.654119953513145447e-02
1.908309943974018097e-02 7.134690135717391968e-02 5.045390129089355469e-02
-6.571660190820693970e-02 1.472200006246566772e-01 -2.490209974348545074e-02
-4.849459975957870483e-02 1.564060002565383911e-01 9.577520191669464111e-03
-8.455370366573333740e-02 1.432320028543472290e-01 5.166680086404085159e-03
5.329969804733991623e-03 3.895530104637145996e-02 -8.301059715449810028e-03
-7.629449665546417236e-02 1.527869999408721924e-01 -1.189019996672868729e-02
-7.666660007089376450e-03 5.270370095968246460e-02 -3.285010159015655518e-02
-6.149740144610404968e-02 9.044729918241500854e-02 4.540089890360832214e-02
-5.538750067353248596e-02 1.438840031623840332e-01 3.050019964575767517e-02
-1.712159952148795128e-03 6.694400310516357422e-02 -3.440139815211296082e-02
-5.359039828181266785e-02 6.176989898085594177e-02 -8.867739699780941010e-03
-8.702509850263595581e-02 1.363459974527359009e-01 3.215159988030791283e-03
-1.653320039622485638e-03 5.114069953560829163e-02 -3.098680078983306885e-02
-5.733750015497207642e-02 4.727689921855926514e-02 1.012180000543594360e-02
-3.177719935774803162e-02 1.697410047054290771e-01 -5.739490035921335220e-03
3.489650087431073189e-03 1.057640016078948975e-01 4.241320118308067322e-02
-3.333970159292221069e-02 4.100570082664489746e-02 4.992119967937469482e-02
8.423119783401489258e-03 3.850059956312179565e-02 3.301829844713211060e-02
-7.250010222196578979e-02 1.203909963369369507e-01 5.358450114727020264e-02
-7.104790210723876953e-02 1.663720011711120605e-01 -1.947540044784545898e-02
-5.384499952197074890e-02 9.559720009565353394e-02 -2.179349958896636963e-02
-3.877770155668258667e-02 8.270420134067535400e-02 -2.131530083715915680e-02
-6.418479979038238525e-02 4.320859909057617188e-02 3.169339895248413086e-02
-1.894110068678855896e-02 3.761769831180572510e-02 5.304880067706108093e-02
1.979059912264347076e-02 1.064969971776008606e-01 -1.681560091674327850e-02
-4.372379928827285767e-02 7.394289970397949219e-02 -1.820299960672855377e-02
-7.959389686584472656e-02 1.123190000653266907e-01 4.616820067167282104e-02
1.510229986160993576e-02 8.605179935693740845e-02 5.180469900369644165e-02
-7.528550177812576294e-02 1.764670014381408691e-01 -5.196329951286315918e-02
-3.049479983747005463e-02 9.464599937200546265e-02 4.485189914703369141e-02
-6.080880016088485718e-02 1.482460051774978638e-01 3.676110133528709412e-02
6.706399843096733093e-03 3.414069861173629761e-02 1.848630048334598541e-02
-6.033829972147941589e-02 1.559980064630508423e-01 7.652840111404657364e-03
-5.889920145273208618e-02 5.936580151319503784e-02 2.039030008018016815e-02
-5.399790033698081970e-02 1.531679928302764893e-01 1.868150010704994202e-02
-3.954349830746650696e-02 1.015049964189529419e-01 4.092760011553764343e-02
-2.760739997029304504e-02 3.564909845590591431e-02 5.271760001778602600e-02
-4.495540168136358261e-03 6.337159872055053711e-02 5.615919828414916992e-02
-1.572700031101703644e-02 6.575419753789901733e-02 -3.775170072913169861e-02
-4.823949933052062988e-02 1.446720063686370850e-01 6.440619938075542450e-03
-2.653810009360313416e-02 1.554249972105026245e-01 -5.061979871243238449e-03
-7.570230215787887573e-02 1.772260069847106934e-01 -4.562279954552650452e-02
-9.534040000289678574e-04 1.007020026445388794e-01 4.622809961438179016e-02
-5.404790118336677551e-02 1.427650004625320435e-01 -1.179000013507902622e-03
-2.746940031647682190e-02 1.552080065011978149e-01 -4.739739932119846344e-03
3.828509943559765816e-03 9.929969906806945801e-02 -2.316090092062950134e-02
4.387750104069709778e-02 6.951999664306640625e-02 2.295909944223240018e-04
-8.646260201930999756e-02 1.077490001916885376e-01 1.638839952647686005e-02
-2.552039921283721924e-02 1.152940019965171814e-01 3.391509875655174255e-02
-3.467940166592597961e-02 1.197649985551834106e-01 -1.065440010279417038e-02
2.237280085682868958e-02 6.588140130043029785e-02 4.634379968047142029e-02
-4.977960139513015747e-02 5.183190107345581055e-02 3.488359972834587097e-02
-4.350150004029273987e-02 8.605600148439407349e-02 4.321999847888946533e-02
-5.149630084633827209e-02 1.578540056943893433e-01 9.542670100927352905e-03
-8.815280348062515259e-02 1.294720023870468140e-01 2.272499958053231239e-03
-6.451079994440078735e-02 1.353480070829391479e-01 4.006339982151985168e-02
2.450509928166866302e-02 8.490650355815887451e-02 4.785029962658882141e-02
1.185270026326179504e-02 1.055419966578483582e-01 -1.975449919700622559e-02
-8.599390089511871338e-02 9.401959925889968872e-02 4.452930006664246321e-04
-4.628140106797218323e-02 1.550489962100982666e-01 8.417350240051746368e-03
-6.982199847698211670e-02 1.567759960889816284e-01 -1.625929959118366241e-03
-4.330819845199584961e-02 3.795700147747993469e-02 -2.532389946281909943e-02
2.672860026359558105e-02 5.217310041189193726e-02 -2.075660042464733124e-02
-8.550249785184860229e-02 8.329650014638900757e-02 2.147530019283294678e-02
1.941779977641999722e-03 3.534850105643272400e-02 2.005779929459095001e-02
-3.962339833378791809e-02 1.500270068645477295e-01 -4.098109900951385498e-03
-4.750049859285354614e-02 8.479499816894531250e-02 4.499699920415878296e-02
-2.552369982004165649e-02 1.166779994964599609e-01 3.291210159659385681e-02
-5.749759823083877563e-02 7.764869928359985352e-02 4.334979876875877380e-02
-4.414299875497817993e-02 1.594109982252120972e-01 6.248809862881898880e-03
-9.501310065388679504e-03 8.704289793968200684e-02 5.723090097308158875e-02
-8.293750137090682983e-02 1.169940009713172913e-01 4.876460134983062744e-02
1.401189994066953659e-02 7.267499715089797974e-02 5.364919826388359070e-02
3.029979951679706573e-02 6.943839788436889648e-02 -1.981200091540813446e-02
4.845469817519187927e-02 7.023379951715469360e-02 3.596449969336390495e-03
-3.986110165715217590e-02 3.385610133409500122e-02 -1.633849926292896271e-02
4.550860077142715454e-02 5.559400096535682678e-02 3.233030065894126892e-02
-6.200269982218742371e-02 1.725279986858367920e-01 -5.459709838032722473e-02
-5.109469965100288391e-02 1.385490000247955322e-01 1.402540015988051891e-03
-4.749289900064468384e-02 1.637479960918426514e-01 5.428050179034471512e-03
-4.450450092554092407e-02 4.384829849004745483e-02 4.291899874806404114e-02
-1.972730085253715515e-02 1.180030032992362976e-01 -1.292209979146718979e-02
3.391779959201812744e-03 4.338920116424560547e-02 -2.478330023586750031e-02
-4.875019937753677368e-02 1.670130044221878052e-01 -1.971990102902054787e-03
-7.979150116443634033e-02 7.460690289735794067e-02 -2.481949981302022934e-03
-4.449560120701789856e-02 1.029329970479011536e-01 4.179489985108375549e-02
-8.529680222272872925e-02 8.182880282402038574e-02 5.493999924510717392e-03
-9.039369970560073853e-02 1.420280039310455322e-01 2.816209942102432251e-02
2.288220077753067017e-02 4.074950143694877625e-02 3.978860005736351013e-02
-7.773499935865402222e-03 7.703790068626403809e-02 -3.766680136322975159e-02
-5.578679963946342468e-03 1.097050011157989502e-01 -2.218759991228580475e-02
2.264480106532573700e-03 3.469249978661537170e-02 1.890089921653270721e-02
-5.642269924283027649e-02 1.257790029048919678e-01 -6.857189815491437912e-03
-6.468319892883300781e-02 4.327449947595596313e-02 3.369620069861412048e-02
2.329160086810588837e-02 1.046760007739067078e-01 4.085990041494369507e-02
2.543310075998306274e-02 4.006540030241012573e-02 -4.629959817975759506e-03
-2.248479984700679779e-02 4.746349900960922241e-02 5.109259858727455139e-02
-3.972309827804565430e-02 1.161840036511421204e-01 -1.490760035812854767e-02
-1.247949991375207901e-02 5.173519998788833618e-02 5.085429921746253967e-02
1.092830020934343338e-02 6.168390065431594849e-02 5.263140052556991577e-02
-5.666580051183700562e-02 4.733179882168769836e-02 1.086170040071010590e-02
-4.649410024285316467e-02 9.873879700899124146e-02 4.275450110435485840e-02
-5.364980176091194153e-02 1.528940051794052124e-01 1.735810004174709320e-02
-5.715110152959823608e-02 3.943049907684326172e-02 4.686849936842918396e-02
-4.930600151419639587e-02 1.477649956941604614e-01 1.100539974868297577e-02
-2.826949954032897949e-02 6.200420111417770386e-02 -2.844580076634883881e-02
-6.203019991517066956e-02 1.410280019044876099e-01 3.668389841914176941e-02
1.300830021500587463e-02 9.562309831380844116e-02 -2.524209953844547272e-02
2.265200018882751465e-02 8.621159940958023071e-02 4.868879914283752441e-02
3.949400037527084351e-02 4.845320060849189758e-02 3.214830160140991211e-02
-4.059119895100593567e-02 4.049089923501014709e-02 -2.629759907722473145e-02
-5.182709917426109314e-02 9.416099637746810913e-02 -2.178720012307167053e-02
-6.214069947600364685e-02 1.636649966239929199e-01 -5.679779872298240662e-02
-5.720010027289390564e-02 3.805619850754737854e-02 4.691170156002044678e-02
-5.485989898443222046e-02 1.453019976615905762e-01 2.951410040259361267e-02
-3.047809936106204987e-02 5.239539965987205505e-02 -1.636319980025291443e-02
3.349710023030638695e-03 5.106129869818687439e-02 -2.984699979424476624e-02
-1.450149994343519211e-02 6.314560025930404663e-02 5.367869883775711060e-02
-4.404789954423904419e-02 1.698389947414398193e-01 -6.956929806619882584e-03
1.801159977912902832e-02 7.546339929103851318e-02 5.245370045304298401e-02
8.900360204279422760e-03 6.309369951486587524e-02 5.496110022068023682e-02
2.634800039231777191e-02 4.634480178356170654e-02 3.782700002193450928e-02
-1.271819975227117538e-02 6.855870038270950317e-02 -3.766589984297752380e-02
-4.922189936041831970e-02 1.450890004634857178e-01 -9.429830242879688740e-05
-1.483239978551864624e-02 1.071320027112960815e-01 -2.146119996905326843e-02
-2.981860004365444183e-02 1.540440022945404053e-01 -4.570120014250278473e-03
-8.669109642505645752e-02 1.076970025897026062e-01 1.335419993847608566e-02
-1.104540005326271057e-02 1.133780032396316528e-01 -1.809640042483806610e-02
1.849330030381679535e-02 8.654519915580749512e-02 4.984879866242408752e-02
2.481259964406490326e-02 6.723640114068984985e-02 4.460670053958892822e-02
2.203419990837574005e-02 1.087369993329048157e-01 -1.521729957312345505e-02
-3.657890111207962036e-02 3.371870145201683044e-02 8.261560462415218353e-03
-3.849679976701736450e-02 1.042120009660720825e-01 3.948320075869560242e-02
-8.648149669170379639e-02 8.461040258407592773e-02 2.485750010237097740e-03
-6.886609829962253571e-03 1.087910011410713196e-01 -2.260310016572475433e-02
-2.340159937739372253e-02 1.846970021724700928e-01 -1.494229957461357117e-02
1.548609975725412369e-02 9.271650016307830811e-02 5.064490064978599548e-02
-4.248610138893127441e-02 1.070680022239685059e-01 3.986350074410438538e-02
-8.201750367879867554e-02 1.487080007791519165e-01 2.172490116208791733e-03
-3.035560064017772675e-02 1.682689934968948364e-01 -7.192899938672780991e-03
-3.672650083899497986e-02 7.252740114927291870e-02 -1.800090074539184570e-02
-4.849879816174507141e-02 7.623749971389770508e-02 4.321819916367530823e-02
-1.585819944739341736e-02 1.071960031986236572e-01 -2.152520045638084412e-02
-4.249250143766403198e-02 9.024520218372344971e-02 4.264859855175018311e-02
-8.572930097579956055e-02 1.217020004987716675e-01 4.884139820933341980e-02
-7.543680071830749512e-02 1.145220026373863220e-01 5.070900171995162964e-02
-5.203469842672348022e-02 3.490670025348663330e-02 4.464890062808990479e-02
2.157109975814819336e-02 3.590299934148788452e-02 2.899469994008541107e-02
-5.710909888148307800e-02 1.409939974546432495e-01 3.145860135555267334e-02
-8.668869733810424805e-02 1.203410029411315918e-01 4.840580001473426819e-02
-3.054930083453655243e-02 4.795870184898376465e-02 -2.427889965474605560e-02
1.880309917032718658e-02 1.066379994153976440e-01 -1.696670055389404297e-02
1.708500087261199951e-02 6.042239814996719360e-02 4.920860007405281067e-02
-6.267780065536499023e-02 4.074509814381599426e-02 4.241209849715232849e-02
9.502730332314968109e-03 5.468539893627166748e-02 5.257660150527954102e-02
-8.560539782047271729e-02 1.190060004591941833e-01 4.876939952373504639e-02
1.304539968259632587e-03 6.413879990577697754e-02 -3.432640060782432556e-02
-6.162609905004501343e-02 1.555490046739578247e-01 7.193820085376501083e-03
1.332889962941408157e-02 6.812290102243423462e-02 -3.103430010378360748e-02
9.493930265307426453e-03 1.098759993910789490e-01 3.991189971566200256e-02
2.303360030055046082e-02 4.907099902629852295e-02 4.009040072560310364e-02
-4.078239947557449341e-02 1.162139996886253357e-01 -1.494149956852197647e-02
-3.408050164580345154e-02 6.809409707784652710e-02 -1.758760027587413788e-02
-5.036259815096855164e-02 6.426560133695602417e-02 3.496740013360977173e-02
7.518620230257511139e-03 7.997380197048187256e-02 5.544440075755119324e-02
8.407119661569595337e-03 4.040440171957015991e-02 -2.340140007436275482e-02
-8.942099660634994507e-02 1.351560056209564209e-01 2.821039967238903046e-02
-6.874710321426391602e-02 1.582120060920715332e-01 -5.600700154900550842e-03
-7.287950068712234497e-02 1.164510026574134827e-01 -7.402259856462478638e-03
-1.027440000325441360e-02 8.643180131912231445e-02 -3.798380121588706970e-02
-3.343379870057106018e-02 3.822340071201324463e-02 5.009090155363082886e-02
-7.992900162935256958e-02 1.513710021972656250e-01 1.210349961183965206e-03
1.714820042252540588e-02 3.494660183787345886e-02 -9.792000055313110352e-03
1.786440052092075348e-02 1.018830016255378723e-01 -2.186750061810016632e-02
4.797499999403953552e-02 7.104379683732986450e-02 2.155780047178268433e-02
-4.249370098114013672e-02 7.480680197477340698e-02 4.278979822993278503e-02
-4.495070129632949829e-02 1.579339951276779175e-01 6.832810118794441223e-03
-5.549829825758934021e-02 9.735210239887237549e-02 4.323890060186386108e-02
-5.649759992957115173e-02 9.043669700622558594e-02 4.526539891958236694e-02
-2.149700000882148743e-02 9.884750097990036011e-02 4.449409991502761841e-02
-7.746429741382598877e-02 1.555490046739578247e-01 -1.390369981527328491e-02
-5.149539932608604431e-02 8.336570113897323608e-02 4.477620124816894531e-02
1.775130070745944977e-02 4.623420163989067078e-02 4.296319931745529175e-02
-9.008929878473281860e-02 1.351349949836730957e-01 2.421450056135654449e-02
-3.149380162358283997e-02 9.462709724903106689e-02 4.460649937391281128e-02
-7.780990004539489746e-02 1.486379951238632202e-01 -3.885210026055574417e-03
-6.653229892253875732e-02 1.546670049428939819e-01 2.529460005462169647e-03
4.707260057330131531e-02 4.855100065469741821e-02 -3.646400058642029762e-03
-4.632220044732093811e-02 4.110969975590705872e-02 -1.327130012214183807e-02
-1.224359963089227676e-02 1.120930016040802002e-01 -1.872489973902702332e-02
-5.266080051660537720e-02 5.043629929423332214e-02 2.765149995684623718e-02
-4.852569848299026489e-02 1.210869997739791870e-01 2.974719926714897156e-02
-7.662799954414367676e-02 1.698080003261566162e-01 -3.166789934039115906e-02
-3.474520053714513779e-03 1.147250011563301086e-01 -1.756690070033073425e-02
-3.348910063505172729e-02 9.181399643421173096e-02 4.451699927449226379e-02
-8.689440041780471802e-02 1.225560009479522705e-01 -1.734029967337846756e-03
-4.349070042371749878e-02 1.713449954986572266e-01 -5.035580135881900787e-03
-6.851819902658462524e-02 3.682139888405799866e-02 -5.393899977207183838e-03
1.776180043816566467e-02 1.006139963865280151e-01 -2.245439961552619934e-02
-5.313450098037719727e-02 6.415729969739913940e-02 3.330609947443008423e-02
5.314489826560020447e-02 6.084290146827697754e-02 -2.880489919334650040e-03
-3.042690083384513855e-02 1.697439998388290405e-01 -7.296700030565261841e-03
