-8.592300117015838623e-02 5.902500078082084656e-02 -3.398130089044570923e-02
-8.483140170574188232e-02 7.302500307559967041e-02 -8.687499910593032837e-03
4.637699946761131287e-02 5.572390183806419373e-02 4.262499976903200150e-03
5.162699893116950989e-02 5.889379978179931641e-02 -2.828750014305114746e-02
3.329410031437873840e-02 5.925830081105232239e-02 1.352620031684637070e-02
7.157699763774871826e-02 5.423820018768310547e-02 -8.687499910593032837e-03
3.517699986696243286e-02 7.162500172853469849e-02 2.598210051655769348e-02
-7.178760319948196411e-02 8.107499778270721436e-02 -2.898750081658363342e-02
-4.920030012726783752e-02 1.066249981522560120e-01 4.962500184774398804e-03
4.758739843964576721e-02 8.037500083446502686e-02 -8.687499910593032837e-03
-7.227300107479095459e-02 1.207169964909553528e-01 -3.787500085309147835e-03
-8.067300170660018921e-02 1.408369988203048706e-01 5.312509834766387939e-03
7.227700203657150269e-02 1.405750066041946411e-01 -8.443259634077548981e-03
2.047700062394142151e-02 9.114520251750946045e-02 -3.073750063776969910e-02
-3.972300142049789429e-02 6.217499822378158569e-02 1.397380046546459198e-02
-8.572990074753761292e-03 1.146750003099441528e-01 -3.346399962902069092e-02
5.862699821591377258e-02 8.260119706392288208e-02 9.862500242888927460e-03
1.487699989229440689e-02 6.497500091791152954e-02 -9.774680249392986298e-03
-6.739450246095657349e-02 6.567499786615371704e-02 2.351249940693378448e-02
8.577000349760055542e-03 1.559749990701675415e-01 -1.906069926917552948e-02
5.967700108885765076e-02 1.069749966263771057e-01 -1.015810016542673111e-02
-9.327299892902374268e-02 1.745249927043914795e-01 -4.907470196485519409e-03
-1.006229966878890991e-01 1.457030028104782104e-01 5.662499926984310150e-03
-7.857300341129302979e-02 1.601469963788986206e-01 -1.918750070035457611e-02
-1.729880023049190640e-04 8.236920088529586792e-02 -6.587500218302011490e-03
1.732699945569038391e-02 6.532499939203262329e-02 2.166419988498091698e-03
5.683830007910728455e-02 1.335750073194503784e-01 -2.898750081658363342e-02
-7.962299883365631104e-02 5.861169844865798950e-02 -3.598750010132789612e-02
3.062799945473670959e-02 1.194460019469261169e-01 -1.941449940204620361e-02
-5.073000211268663406e-03 1.233920007944107056e-01 -3.318750113248825073e-02
-3.252020105719566345e-02 1.017080023884773254e-01 -1.392440032213926315e-02
6.477009970694780350e-03 9.962499886751174927e-02 -2.387190051376819611e-02
-2.852299995720386505e-02 9.378360211849212646e-02 3.562510013580322266e-03
7.877009920775890350e-03 1.471849977970123291e-01 -3.073750063776969910e-02
7.227700203657150269e-02 1.148179993033409119e-01 6.250289879972115159e-05
-1.872299984097480774e-02 6.112499907612800598e-02 -2.305389940738677979e-02
-5.967300012707710266e-02 8.807499706745147705e-02 -3.318709880113601685e-02
4.042699933052062988e-02 1.143250018358230591e-01 1.339710038155317307e-02
-5.582299828529357910e-02 5.342499911785125732e-02 -1.139060035347938538e-02
4.427700117230415344e-02 1.545750051736831665e-01 -1.725419983267784119e-02
-8.417300134897232056e-02 1.748750060796737671e-01 8.813410066068172455e-03
-7.628220319747924805e-02 6.882499903440475464e-02 1.196250040084123611e-02
-5.302299931645393372e-02 1.562069952487945557e-01 4.612499848008155823e-03
-4.602300003170967102e-02 1.395580023527145386e-01 -2.723749913275241852e-02
-5.932300165295600891e-02 7.862500101327896118e-02 -3.591800108551979065e-02
-3.892929852008819580e-02 1.188749969005584717e-01 -4.137500189244747162e-03
-4.987299814820289612e-02 6.042499840259552002e-02 1.665770076215267181e-02
-1.242300029844045639e-02 1.731249988079071045e-01 -1.165650039911270142e-02
-3.796159848570823669e-02 1.801249980926513672e-01 1.462499960325658321e-03
7.717700302600860596e-02 8.318670094013214111e-02 2.106250077486038208e-02
4.027009941637516022e-03 1.347389966249465942e-01 -3.423750028014183044e-02
-7.523159682750701904e-02 1.059250012040138245e-01 -1.918750070035457611e-02
-1.802299916744232178e-02 1.209750026464462280e-01 -1.074989978224039078e-02
-2.976690046489238739e-02 1.685750037431716919e-01 -3.493750095367431641e-02
3.237700089812278748e-02 5.714379996061325073e-02 -4.683750122785568237e-02
-5.229859962128102779e-04 1.073250025510787964e-01 -3.377339988946914673e-02
7.901070266962051392e-02 1.122250035405158997e-01 -1.008750032633543015e-02
-3.412299975752830505e-02 5.937499925494194031e-02 1.577159948647022247e-02
3.335990011692047119e-02 5.902500078082084656e-02 -2.548749931156635284e-02
-2.646099962294101715e-02 7.722499966621398926e-02 1.091250032186508179e-02
-4.182299971580505371e-02 1.864250004291534424e-01 -1.533219963312149048e-02
-9.047300368547439575e-02 1.776749938726425171e-01 1.463420037180185318e-02
-8.417300134897232056e-02 6.987500190734863281e-02 1.556279952637851238e-03
4.757520183920860291e-02 7.609959691762924194e-02 -1.466579968109726906e-03
-2.152300067245960236e-02 8.317500352859497070e-02 8.854419924318790436e-03
5.617700144648551941e-02 1.118749976158142090e-01 -2.925110049545764923e-02
-8.452299982309341431e-02 9.647499769926071167e-02 7.944810204207897186e-04
6.387310102581977844e-03 1.174750030040740967e-01 -2.037500031292438507e-03
-1.016179993748664856e-01 1.444250047206878662e-01 3.212499897927045822e-03
6.296870112419128418e-02 1.115249991416931152e-01 -1.603749953210353851e-02
4.836940020322799683e-02 9.717500209808349609e-02 1.966249942779541016e-02
5.092699825763702393e-02 5.656040087342262268e-02 -1.813749969005584717e-02
3.937700018286705017e-02 8.009669929742813110e-02 7.625040016137063503e-04
3.517699986696243286e-02 6.007499992847442627e-02 -4.125750064849853516e-02
8.008030126802623272e-04 8.247499912977218628e-02 -1.673750020563602448e-02
4.567699879407882690e-02 8.329849690198898315e-02 2.316249907016754150e-02
-6.822989787906408310e-03 6.847500056028366089e-02 -1.325500011444091797e-02
6.807699799537658691e-02 6.322500109672546387e-02 2.321619912981987000e-02
-2.393759973347187042e-02 6.427499651908874512e-02 -3.878749907016754150e-02
-8.572990074753761292e-03 1.269250065088272095e-01 -3.047879971563816071e-02
8.347699791193008423e-02 8.907579630613327026e-02 3.212499897927045822e-03
-1.592300087213516235e-02 5.960899963974952698e-02 8.462499827146530151e-03
-9.272989816963672638e-03 1.188749969005584717e-01 -3.248789906501770020e-02
4.357700049877166748e-02 7.862830162048339844e-02 1.112499972805380821e-03
2.817700058221817017e-02 5.281480029225349426e-02 -1.463750004768371582e-02
-5.528530105948448181e-02 1.604389995336532593e-01 -9.777939878404140472e-03
-8.185540139675140381e-02 1.017249971628189087e-01 -1.393750030547380447e-02
-4.147300124168395996e-02 1.146750003099441528e-01 -4.058079794049263000e-03
-5.191320180892944336e-02 1.391749978065490723e-01 -5.537500139325857162e-03
6.970170140266418457e-02 5.902500078082084656e-02 1.616249978542327881e-02
2.362699992954730988e-02 8.072499930858612061e-02 1.412920001894235611e-02
-1.521809957921504974e-02 5.727500095963478088e-02 -9.387499652802944183e-03
-7.437299937009811401e-02 1.693640053272247314e-01 1.546250004321336746e-02
-1.172299962490797043e-02 1.332170069217681885e-01 -1.288750022649765015e-02
-4.096810147166252136e-02 1.636749953031539917e-01 -3.808749839663505554e-02
-7.857300341129302979e-02 6.070280075073242188e-02 -7.287490181624889374e-03
-8.266169577836990356e-03 1.335750073194503784e-01 -7.637499831616878510e-03
1.417700015008449554e-02 6.497500091791152954e-02 -1.913199946284294128e-02
-7.612299919128417969e-02 1.738249957561492920e-01 7.911400170996785164e-04
-2.117300033569335938e-02 1.223749965429306030e-01 -1.875239983201026917e-02
-4.532299935817718506e-02 9.455300122499465942e-02 6.712500005960464478e-03
-1.268259994685649872e-02 6.007499992847442627e-02 -6.237499881535768509e-03
-7.176829874515533447e-02 1.641760021448135376e-01 -5.190470255911350250e-04
2.849810011684894562e-02 1.563249975442886353e-01 -1.358749996870756149e-02
-9.099269658327102661e-02 1.721380054950714111e-01 7.901160046458244324e-03
3.202699869871139526e-02 1.514250040054321289e-01 -6.177939940243959427e-03
2.572700008749961853e-02 6.975629925727844238e-02 1.336249988526105881e-02
2.607700042426586151e-02 5.630920082330703735e-02 1.266250014305114746e-02
3.202699869871139526e-02 7.757499814033508301e-02 -3.404590114951133728e-02
-7.822299748659133911e-02 7.897499948740005493e-02 -2.017810009419918060e-02
8.577000349760055542e-03 1.516650021076202393e-01 -2.653750032186508179e-02
5.057699978351593018e-02 5.458119884133338928e-02 1.196250040084123611e-02
4.654860123991966248e-02 7.312840223312377930e-02 -3.101400099694728851e-03
-7.859239727258682251e-02 6.392499804496765137e-02 -1.393750030547380447e-02
-3.622300177812576294e-02 1.538749933242797852e-01 -3.782049939036369324e-02
-2.152300067245960236e-02 9.262499958276748657e-02 -3.177620097994804382e-02
-6.702300161123275757e-02 1.696249991655349731e-01 -2.190590091049671173e-02
1.662700064480304718e-02 1.566150039434432983e-01 -1.778749935328960419e-02
-4.222819954156875610e-02 6.357499957084655762e-02 3.121249936521053314e-02
2.082699909806251526e-02 5.683830007910728455e-02 -1.953749917447566986e-02
3.237700089812278748e-02 5.797500163316726685e-02 -5.013639852404594421e-02
3.420040011405944824e-02 9.017500281333923340e-02 2.246250025928020477e-02
-3.027299977838993073e-02 5.762499943375587463e-02 -2.702580019831657410e-02
-1.277299970388412476e-02 5.564650148153305054e-02 2.176249958574771881e-02
-8.181329816579818726e-02 1.045249998569488525e-01 6.250289879972115159e-05
2.273719944059848785e-02 7.256569713354110718e-02 -3.358539938926696777e-02
-3.382569923996925354e-02 1.160439997911453247e-01 -1.441789977252483368e-02
-2.222299948334693909e-02 6.287500262260437012e-02 2.449529990553855896e-02
-2.064180001616477966e-02 1.812739968299865723e-01 -2.499729953706264496e-02
-2.922300063073635101e-02 5.622500181198120117e-02 1.226729992777109146e-02
-6.772299855947494507e-02 1.489749997854232788e-01 1.037789974361658096e-02
5.407699942588806152e-02 1.078979969024658203e-01 -6.587500218302011490e-03
7.052700221538543701e-02 7.967499643564224243e-02 8.265189826488494873e-04
-2.362300083041191101e-02 1.598249971866607666e-01 -2.084000036120414734e-02
7.262700051069259644e-02 7.597039639949798584e-02 2.421250008046627045e-02
-2.222299948334693909e-02 9.122499823570251465e-02 6.111830007284879684e-03
-5.932300165295600891e-02 5.657500028610229492e-02 1.072630006819963455e-02
-2.222299948334693909e-02 1.753199994564056396e-01 -6.587500218302011490e-03
-6.177299842238426208e-02 1.637800037860870361e-01 1.091250032186508179e-02
-9.936650283634662628e-03 6.462500244379043579e-02 1.056249998509883881e-02
2.432700060307979584e-02 1.325139999389648438e-01 -5.187499802559614182e-03
7.262700051069259644e-02 1.342750042676925659e-01 -9.606160223484039307e-03
2.782700024545192719e-02 6.341180205345153809e-02 -4.263750091195106506e-02
3.768069902434945107e-03 1.073250025510787964e-01 -3.178749978542327881e-02
-1.907739974558353424e-02 1.278840005397796631e-01 -1.901170052587985992e-02
5.197700113058090210e-02 1.426749974489212036e-01 -7.451680023223161697e-03
8.382699638605117798e-02 9.592069685459136963e-02 2.162500051781535149e-03
-4.112299904227256775e-02 7.197500020265579224e-02 2.810739912092685699e-02
-4.147300124168395996e-02 1.783750057220458984e-01 -9.856030344963073730e-03
-5.692220106720924377e-02 1.556970030069351196e-01 -2.288779988884925842e-02
-2.152300067245960236e-02 1.034749969840049744e-01 -1.312799984589219093e-03
-6.597299873828887939e-02 9.176000207662582397e-02 1.511249970644712448e-02
-2.677300013601779938e-02 1.577250063419342041e-01 -3.747019916772842407e-02
4.357700049877166748e-02 7.982259988784790039e-02 2.596249990165233612e-02
1.837700046598911285e-02 1.528249979019165039e-01 -8.351779542863368988e-03
-7.087299972772598267e-02 1.428129971027374268e-01 -1.148749981075525284e-02
3.412700071930885315e-02 1.580750048160552979e-01 -2.377380058169364929e-02
-3.972300142049789429e-02 1.489749997854232788e-01 1.891670050099492073e-03
-2.887300029397010803e-02 5.537860095500946045e-02 2.176249958574771881e-02
-8.069300092756748199e-03 7.197500020265579224e-02 -2.198749966919422150e-02
-4.812299832701683044e-02 7.337500154972076416e-02 3.226120024919509888e-02
4.952700063586235046e-02 1.080249994993209839e-01 -3.249330073595046997e-02
-6.061189994215965271e-02 7.092499732971191406e-02 4.101249948143959045e-02
4.725189879536628723e-02 6.392499804496765137e-02 -3.423750028014183044e-02
3.377699851989746094e-02 6.357499957084655762e-02 -3.764649853110313416e-02
-9.712299704551696777e-02 1.503749936819076538e-01 1.687440089881420135e-02
5.162699893116950989e-02 9.658270329236984253e-02 -2.128750085830688477e-02
5.407699942588806152e-02 7.871469855308532715e-02 1.511249970644712448e-02
2.817700058221817017e-02 1.072710007429122925e-01 -9.037490002810955048e-03
-2.362300083041191101e-02 1.869640052318572998e-01 -2.653750032186508179e-02
-6.394489854574203491e-02 6.532499939203262329e-02 -3.423750028014183044e-02
5.232699960470199585e-02 1.297249943017959595e-01 -3.273639827966690063e-02
4.512180015444755554e-02 8.737500011920928955e-02 -2.583749964833259583e-02
1.435420010238885880e-02 7.596720010042190552e-02 -6.742959958501160145e-04
2.126329950988292694e-02 5.979130044579505920e-02 7.583600003272294998e-03
5.092699825763702393e-02 6.392499804496765137e-02 -3.194089978933334351e-02
-3.097300045192241669e-02 5.709579959511756897e-02 1.406249962747097015e-02
7.177010178565979004e-03 9.669259935617446899e-02 -1.498750038444995880e-02
-5.151129886507987976e-02 1.409910023212432861e-01 -2.194990031421184540e-02
-4.751009866595268250e-03 7.862500101327896118e-02 -2.408749982714653015e-02
-1.027230024337768555e-01 1.570249944925308228e-01 6.757900118827819824e-03
-7.157299667596817017e-02 6.125890091061592102e-02 -3.283749893307685852e-02
-4.252300038933753967e-02 5.465520173311233521e-02 -2.688750065863132477e-02
-1.977300085127353668e-02 5.902500078082084656e-02 2.543500065803527832e-02
-5.407299846410751343e-02 1.293749958276748657e-01 -2.434829995036125183e-02
-8.922990411520004272e-03 1.356240063905715942e-01 -2.408749982714653015e-02
4.742699861526489258e-02 8.601389825344085693e-02 -1.288750022649765015e-02
4.426689818501472473e-02 8.346369862556457520e-02 1.768629997968673706e-02
-3.026049956679344177e-02 1.556250005960464478e-01 -3.808749839663505554e-02
-8.342310041189193726e-02 6.567499786615371704e-02 -3.528749942779541016e-02
2.292699925601482391e-02 7.337500154972076416e-02 1.373310014605522156e-02
-1.627299934625625610e-02 5.616540089249610901e-02 9.512499906122684479e-03
3.407299891114234924e-02 5.762499943375587463e-02 -4.438750073313713074e-02
7.262700051069259644e-02 8.527500182390213013e-02 2.177710086107254028e-02
3.554699942469596863e-02 1.262249946594238281e-01 -5.187499802559614182e-03
-4.952299967408180237e-02 7.057499885559082031e-02 -3.591360151767730713e-02
-1.047020033001899719e-01 1.454750001430511475e-01 3.912500105798244476e-03
-3.692299872636795044e-02 1.916750073432922363e-01 -1.808420009911060333e-02
-9.662750363349914551e-02 1.664749979972839355e-01 -7.987500168383121490e-03
-5.018509924411773682e-02 8.877500146627426147e-02 -2.233750000596046448e-02
3.677010070532560349e-03 1.505409926176071167e-01 -2.408749982714653015e-02
-7.297299802303314209e-02 6.882499903440475464e-02 -2.271590009331703186e-02
6.127010099589824677e-03 9.574580192565917969e-02 -1.043749973177909851e-02
-6.751979887485504150e-02 1.500699967145919800e-01 -1.327950041741132736e-02
-2.336519956588745117e-02 1.650750041007995605e-01 -2.303750067949295044e-02
-3.923489898443222046e-02 1.934249997138977051e-01 -2.198749966919422150e-02
2.852700091898441315e-02 1.066249981522560120e-01 -2.824210003018379211e-02
1.839759945869445801e-02 1.311250030994415283e-01 -4.837499931454658508e-03
6.554289907217025757e-02 1.227599978446960449e-01 -1.189849991351366043e-02
-2.642299979925155640e-02 5.705559998750686646e-02 -3.878749907016754150e-02
-8.280610293149948120e-02 1.608749926090240479e-01 -1.708750054240226746e-02
-7.690490037202835083e-02 8.877500146627426147e-02 -2.163749933242797852e-02
1.843300089240074158e-02 8.667500317096710205e-02 -3.003749996423721313e-02
3.867699950933456421e-02 1.233680024743080139e-01 -3.087500110268592834e-03
-6.414219737052917480e-02 5.832500010728836060e-02 1.196250040084123611e-02
-1.959309913218021393e-02 1.550160050392150879e-01 -2.515630051493644714e-02
5.612869933247566223e-02 1.017249971628189087e-01 -1.743750087916851044e-02
3.753539919853210449e-02 8.413580060005187988e-02 -2.746419981122016907e-03
-5.300579965114593506e-02 1.466259956359863281e-01 1.409859978593885899e-03
-9.187299758195877075e-02 1.759250015020370483e-01 1.071599964052438736e-02
1.697699911892414093e-02 7.757499814033508301e-02 5.309280008077621460e-03
-6.798029690980911255e-02 1.514289975166320801e-01 -1.670959964394569397e-02
1.452699955552816391e-02 5.902500078082084656e-02 1.072280015796422958e-02
-8.222989737987518311e-03 1.227620020508766174e-01 -1.337500056251883507e-03
-6.737300008535385132e-02 1.167749986052513123e-01 5.695149768143892288e-03
-8.429930359125137329e-02 1.594749987125396729e-01 -1.253749988973140717e-02
5.384039878845214844e-02 7.162500172853469849e-02 -1.358749996870756149e-02
-7.848080247640609741e-02 6.742499768733978271e-02 -1.743750087916851044e-02
3.412700071930885315e-02 5.447499826550483704e-02 -2.164030075073242188e-02
9.222699701786041260e-02 1.307750046253204346e-01 -1.164249982684850693e-02
-6.736080348491668701e-02 1.087249964475631714e-01 -2.163749933242797852e-02
-6.492300331592559814e-02 5.624829977750778198e-02 2.246250025928020477e-02
-3.446869924664497375e-02 1.717250049114227295e-01 -2.583749964833259583e-02
-4.112299904227256775e-02 8.209919929504394531e-02 -2.758749946951866150e-02
-5.868880078196525574e-02 1.668249964714050293e-01 8.112500421702861786e-03
4.386299848556518555e-02 9.061270207166671753e-02 1.661540009081363678e-02
-3.377300128340721130e-02 9.332499653100967407e-02 2.493269974365830421e-03
-3.322989912703633308e-03 7.407499849796295166e-02 -7.040049880743026733e-03
2.222700044512748718e-02 5.713320150971412659e-02 -6.374979857355356216e-04
-6.549400091171264648e-02 1.195750012993812561e-01 4.612499848008155823e-03
6.059240177273750305e-02 1.125750020146369934e-01 -2.128750085830688477e-02
1.557699963450431824e-02 6.252499669790267944e-02 2.417360059916973114e-02
-4.112299904227256775e-02 1.265749931335449219e-01 3.665419935714453459e-04
7.864259928464889526e-02 7.092499732971191406e-02 1.651250012218952179e-02
-6.247299909591674805e-02 1.298650056123733521e-01 -9.037490002810955048e-03
-1.263929996639490128e-02 1.906249970197677612e-01 -2.898750081658363342e-02
-1.314899977296590805e-02 1.888750046491622925e-01 -2.478750050067901611e-02
-6.667300313711166382e-02 1.520130038261413574e-01 2.162500051781535149e-03
1.592699997127056122e-02 1.426749974489212036e-01 -3.501589968800544739e-02
3.727699816226959229e-02 1.235809996724128723e-01 7.412500213831663132e-03
-1.977019943296909332e-02 1.230750009417533875e-01 -1.498750038444995880e-02
2.552950009703636169e-02 8.562500029802322388e-02 1.336249988526105881e-02
4.777700081467628479e-02 9.822499752044677734e-02 -6.817339919507503510e-03
5.827699974179267883e-02 8.253160119056701660e-02 3.562510013580322266e-03
4.234839975833892822e-02 8.067309856414794922e-02 1.324320025742053986e-02
8.227010257542133331e-03 1.430249959230422974e-01 -4.201130010187625885e-03
-8.687389642000198364e-02 1.507209986448287964e-01 -1.839409960666671395e-04
4.566770046949386597e-02 8.667500317096710205e-02 -2.128750085830688477e-02
-5.652299895882606506e-02 5.692499876022338867e-02 -2.162780053913593292e-02
-9.397300332784652710e-02 1.797479987144470215e-01 2.512499922886490822e-03
5.360499955713748932e-03 1.104750037193298340e-01 -3.178749978542327881e-02
-5.477299913763999939e-02 1.269250065088272095e-01 -2.422210015356540680e-02
4.938540048897266388e-03 6.007499992847442627e-02 1.406249962747097015e-02
-5.232299864292144775e-02 6.040399894118309021e-02 3.646250069141387939e-02
-3.202300146222114563e-02 1.622249931097030640e-01 -1.337500056251883507e-03
7.329890131950378418e-02 9.052500128746032715e-02 -3.087500110268592834e-03
-4.672300070524215698e-02 1.013749986886978149e-01 -7.520429790019989014e-04
-7.026439905166625977e-02 1.633249968290328979e-01 -1.988749951124191284e-02
-4.022989887744188309e-03 9.227500110864639282e-02 2.608180046081542969e-03
-6.352300196886062622e-02 1.479250043630599976e-01 -2.212820015847682953e-02
-1.797509938478469849e-02 7.372500002384185791e-02 -3.283749893307685852e-02
-8.102300018072128296e-02 1.478559970855712891e-01 -7.987500168383121490e-03
-6.387300044298171997e-02 7.938729971647262573e-02 -3.458749875426292419e-02
3.356070071458816528e-02 6.144659966230392456e-02 1.856339909136295319e-02
2.572700008749961853e-02 6.987500190734863281e-02 -4.041279852390289307e-02
5.057699978351593018e-02 7.407499849796295166e-02 2.086229994893074036e-02
-6.664480268955230713e-02 6.917499750852584839e-02 2.596249990165233612e-02
-2.467299997806549072e-02 1.615750044584274292e-01 -3.421559929847717285e-03
7.787699997425079346e-02 8.142500370740890503e-02 -1.393410027958452702e-03
-8.457379788160324097e-02 9.297499805688858032e-02 4.962500184774398804e-03
2.817700058221817017e-02 5.440219864249229431e-02 -2.163749933242797852e-02
9.327699989080429077e-02 1.347360014915466309e-01 -1.008750032633543015e-02
2.534810081124305725e-02 5.657500028610229492e-02 3.212499897927045822e-03
2.082699909806251526e-02 1.475750058889389038e-01 -4.578060004860162735e-03
-4.912580177187919617e-02 1.442259997129440308e-01 4.343220032751560211e-03
-8.487299829721450806e-02 9.262499958276748657e-02 -1.300030015408992767e-02
-9.712299704551696777e-02 1.572300046682357788e-01 1.091250032186508179e-02
2.887699939310550690e-02 1.342750042676925659e-01 -4.265959840267896652e-03
-6.737300008535385132e-02 1.065609976649284363e-01 1.021249964833259583e-02
3.482700139284133911e-02 1.048749983310699463e-01 -3.359059989452362061e-02
2.550599910318851471e-02 1.552750021219253540e-01 -1.078750006854534149e-02
-4.007299989461898804e-02 1.738259941339492798e-01 -3.038750030100345612e-02
-8.434859663248062134e-02 1.511750072240829468e-01 -4.988929722458124161e-04
-2.187299914658069611e-02 1.160750016570091248e-01 -1.324130035936832428e-02
-6.188350170850753784e-02 9.437499940395355225e-02 1.476250030100345612e-02
-1.595179922878742218e-02 1.591250002384185791e-01 -6.937500089406967163e-03
-5.468029901385307312e-02 1.391749978065490723e-01 -1.708750054240226746e-02
-6.575830280780792236e-02 1.536139994859695435e-01 -5.074829794466495514e-03
-7.542300224304199219e-02 1.626189947128295898e-01 -8.337499573826789856e-03
-2.747300080955028534e-02 1.437249928712844849e-01 -7.619800046086311340e-03
-6.562300026416778564e-02 1.104750037193298340e-01 -2.189799956977367401e-02
5.407699942588806152e-02 1.426749974489212036e-01 -2.760550007224082947e-02
-1.207299996167421341e-02 6.357499957084655762e-02 -3.114599967375397682e-04
-3.902300074696540833e-02 1.101249977946281433e-01 -1.577829942107200623e-02
-3.017590008676052094e-02 8.667500317096710205e-02 9.162499569356441498e-03
4.810379818081855774e-02 7.722499966621398926e-02 7.762500084936618805e-03
-5.407299846410751343e-02 5.326620116829872131e-02 -1.463750004768371582e-02
-5.302299931645393372e-02 5.587499961256980896e-02 3.424509987235069275e-02
3.175380080938339233e-02 6.112499907612800598e-02 -4.578749835491180420e-02
-4.349419847130775452e-02 1.090750023722648621e-01 -6.587500218302011490e-03
-3.762299939990043640e-02 5.447499826550483704e-02 -2.294070087373256683e-02
-4.762860015034675598e-02 5.623209848999977112e-02 -4.760140087455511093e-03
4.357700049877166748e-02 7.512500137090682983e-02 -3.230559825897216797e-02
-3.832300007343292236e-02 1.349969953298568726e-01 -1.337500056251883507e-03
-5.963649973273277283e-02 1.541160047054290771e-01 3.445740090683102608e-03
-2.501670084893703461e-02 6.182499974966049194e-02 2.561249956488609314e-02
-4.427300021052360535e-02 5.797500163316726685e-02 -3.932530060410499573e-02
-6.387300044298171997e-02 7.628940045833587646e-02 2.106250077486038208e-02
1.032700017094612122e-02 1.067690029740333557e-01 -2.163749933242797852e-02
-4.847300052642822266e-02 1.570249944925308228e-01 3.173680044710636139e-03
7.785859704017639160e-02 9.157499670982360840e-02 1.721250079572200775e-02
-5.267300084233283997e-02 1.769520044326782227e-01 -2.408749982714653015e-02
-2.887300029397010803e-02 1.832749992609024048e-01 -5.440500099211931229e-03
3.692959994077682495e-02 6.993409991264343262e-02 1.707560010254383087e-02
-3.374220058321952820e-02 8.247499912977218628e-02 1.686250045895576477e-02
-5.724789947271347046e-02 1.562079936265945435e-01 -9.684479795396327972e-03
7.052700221538543701e-02 6.423400342464447021e-02 2.246250025928020477e-02
-1.065469998866319656e-02 7.442499697208404541e-02 1.231249980628490448e-02
1.271579973399639130e-02 1.220249980688095093e-01 -6.587500218302011490e-03
-6.107300147414207458e-02 1.188670024275779724e-01 6.362500134855508804e-03
-5.897299945354461670e-02 1.503749936819076538e-01 -2.503379993140697479e-02
-5.722299963235855103e-02 1.636749953031539917e-01 8.823899552226066589e-03
4.676879942417144775e-02 7.232499867677688599e-02 -3.003749996423721313e-02
5.372700095176696777e-02 7.783419638872146606e-02 1.791249960660934448e-02
-8.312299847602844238e-02 1.804749965667724609e-01 3.884850069880485535e-03
4.449050128459930420e-02 9.472499787807464600e-02 -3.108749911189079285e-02
7.332699745893478394e-02 8.037500083446502686e-02 2.301359921693801880e-02
2.362699992954730988e-02 1.597229987382888794e-01 -1.988749951124191284e-02
7.863629609346389771e-03 6.112499907612800598e-02 1.826249994337558746e-02
-5.422989837825298309e-03 1.191890016198158264e-01 6.250289879972115159e-05
-4.882299900054931641e-02 9.122499823570251465e-02 1.907430030405521393e-02
-9.938260167837142944e-02 1.507250070571899414e-01 1.266250014305114746e-02
-3.202300146222114563e-02 6.322500109672546387e-02 2.563730068504810333e-02
4.532700031995773315e-02 8.597499877214431763e-02 -2.904440090060234070e-02
-4.287299886345863342e-02 9.367500245571136475e-02 -1.358500029891729355e-02
-4.080349951982498169e-02 1.671749949455261230e-01 -3.808749839663505554e-02
7.997699826955795288e-02 1.507250070571899414e-01 -9.689019992947578430e-03
4.847700148820877075e-02 5.377500131726264954e-02 -1.298389956355094910e-02
-6.562300026416778564e-02 6.952500343322753906e-02 -3.243349865078926086e-02
-5.936570093035697937e-02 1.578869968652725220e-01 -1.939279958605766296e-02
-6.982299685478210449e-02 1.500380039215087891e-01 -9.737499989569187164e-03
3.237700089812278748e-02 1.328359991312026978e-01 -3.318750113248825073e-02
4.777700081467628479e-02 1.286749988794326782e-01 -3.382460027933120728e-02
-6.807299703359603882e-02 1.241249963641166687e-01 -2.041629981249570847e-03
-5.477299913763999939e-02 1.367609947919845581e-01 -6.937500089406967163e-03
4.135639965534210205e-02 9.204070270061492920e-02 1.519710011780261993e-02
-2.887300029397010803e-02 5.363250151276588440e-02 -3.248750045895576477e-02
3.342700004577636719e-02 7.582499831914901733e-02 2.728890068829059601e-02
5.472980067133903503e-02 1.041750013828277588e-01 -9.387499652802944183e-03
-9.467300027608871460e-02 1.417810022830963135e-01 -3.087500110268592834e-03
-3.237299993634223938e-02 1.733890026807785034e-01 -2.198749966919422150e-02
4.707700014114379883e-02 7.510229945182800293e-02 1.616249978542327881e-02
4.427700117230415344e-02 8.562500029802322388e-02 2.893700078129768372e-02
2.795480005443096161e-02 1.094250008463859558e-01 -2.373749949038028717e-02
-6.387300044298171997e-02 1.797540038824081421e-01 -1.253749988973140717e-02
3.761800006031990051e-02 1.094250008463859558e-01 1.546250004321336746e-02
-4.952299967408180237e-02 1.762749999761581421e-01 -3.572069853544235229e-02
7.402700185775756836e-02 7.092499732971191406e-02 -6.650129798799753189e-04
-1.790579967200756073e-02 7.652500271797180176e-02 -3.283749893307685852e-02
5.757699906826019287e-02 1.384750008583068848e-01 -2.586849965155124664e-02
-4.882299900054931641e-02 5.902500078082084656e-02 3.369800001382827759e-02
-1.067299954593181610e-02 7.652500271797180176e-02 6.724089849740266800e-03
2.591410093009471893e-02 6.497070193290710449e-02 1.310020033270120621e-02
6.107699871063232422e-02 1.059380024671554565e-01 -1.323749963194131851e-02
9.081129729747772217e-02 1.398749947547912598e-01 -1.043749973177909851e-02
-7.400950044393539429e-02 1.426749974489212036e-01 8.462499827146530151e-03
-6.002299860119819641e-02 1.199249997735023499e-01 -2.296189963817596436e-02
-6.037300080060958862e-02 5.870280042290687561e-02 1.441249996423721313e-02
3.412700071930885315e-02 5.311879888176918030e-02 -1.498750038444995880e-02
5.582699924707412720e-02 5.449600145220756531e-02 -1.883750036358833313e-02
-5.442300066351890564e-02 8.317500352859497070e-02 2.037519961595535278e-02
-1.034430041909217834e-02 7.092499732971191406e-02 2.512499922886490822e-03
4.680370166897773743e-02 1.573749929666519165e-01 -1.953749917447566986e-02
-5.827299878001213074e-02 6.056100130081176758e-02 -2.688750065863132477e-02
1.032700017094612122e-02 5.740660056471824646e-02 2.141249924898147583e-02
6.877700239419937134e-02 1.269250065088272095e-01 -1.885920017957687378e-02
2.277000108733773232e-03 1.129250004887580872e-01 -2.947080065496265888e-04
-3.272299841046333313e-02 5.516599863767623901e-02 -3.787500085309147835e-03
5.234440043568611145e-02 7.372500002384185791e-02 -1.638749986886978149e-02
1.522700022906064987e-02 1.489749997854232788e-01 -6.233519874513149261e-03
-4.007299989461898804e-02 1.924419999122619629e-01 -1.848750002682209015e-02
4.112700000405311584e-02 1.444250047206878662e-01 -3.745219903066754341e-03
-4.707299917936325073e-02 9.611909836530685425e-02 6.362500134855508804e-03
-7.117380201816558838e-02 1.601749956607818604e-01 -2.268750034272670746e-02
-8.382300287485122681e-02 1.430570036172866821e-01 -1.148749981075525284e-02
-7.927300035953521729e-02 1.500249952077865601e-01 -4.270359873771667480e-03
3.677010070532560349e-03 9.192500263452529907e-02 -7.275380194187164307e-03
-1.277299970388412476e-02 9.122499823570251465e-02 -3.243060037493705750e-02
4.742699861526489258e-02 5.306620150804519653e-02 -8.687499910593032837e-03
-8.211769908666610718e-02 6.882499903440475464e-02 -1.253749988973140717e-02
-8.697299659252166748e-02 8.094900101423263550e-02 -3.087500110268592834e-03
-7.927300035953521729e-02 1.727340072393417358e-01 1.336249988526105881e-02
-9.781049937009811401e-02 1.444250047206878662e-01 5.662499926984310150e-03
-8.945289999246597290e-03 6.532499939203262329e-02 1.266250014305114746e-02
7.822699844837188721e-02 1.094250008463859558e-01 3.282740013673901558e-03
-5.267300084233283997e-02 1.636749953031539917e-01 -3.101209923624992371e-02
-7.997299730777740479e-02 1.403280049562454224e-01 2.512499922886490822e-03
-6.317300349473953247e-02 6.284639984369277954e-02 -2.443750016391277313e-02
-1.837299950420856476e-02 9.017500281333923340e-02 6.112849805504083633e-03
7.857699692249298096e-02 1.402249932289123535e-01 -1.702949963510036469e-02
-1.905689947307109833e-02 7.757499814033508301e-02 1.266250014305114746e-02
6.562700122594833374e-02 9.805549681186676025e-02 2.512499922886490822e-03
2.992700040340423584e-02 6.567499786615371704e-02 -4.697789996862411499e-02
-8.382300287485122681e-02 1.426270008087158203e-01 1.301249954849481583e-02
-2.187299914658069611e-02 1.132749989628791809e-01 -1.081399992108345032e-02
-7.257399708032608032e-02 6.952500343322753906e-02 -2.758749946951866150e-02
-2.712300047278404236e-02 1.326819956302642822e-01 -1.463750004768371582e-02
-5.177209898829460144e-02 1.647250056266784668e-01 6.712500005960464478e-03
-5.932300165295600891e-02 6.987500190734863281e-02 -3.286100178956985474e-02
-7.657119631767272949e-02 1.657769978046417236e-01 1.769619993865489960e-03
-3.937299922108650208e-02 1.643750071525573730e-01 2.134920097887516022e-03
-2.083119936287403107e-02 1.465249955654144287e-01 -2.198749966919422150e-02
-3.557769954204559326e-02 1.422629952430725098e-01 -2.975370036438107491e-03
-8.207300305366516113e-02 5.835010111331939697e-02 -2.583749964833259583e-02
-2.327300049364566803e-02 5.391199886798858643e-02 2.456250041723251343e-02
-2.607299946248531342e-02 6.497500091791152954e-02 -4.047970101237297058e-02
5.827699974179267883e-02 6.147500127553939819e-02 -2.549630030989646912e-02
3.027700074017047882e-02 1.440750062465667725e-01 -2.986750099807977676e-03
-1.382299978286027908e-02 9.787499904632568359e-02 -3.297400102019309998e-02
5.442700162529945374e-02 1.463429927825927734e-01 -2.338749915361404419e-02
8.732700347900390625e-02 1.467359960079193115e-01 -1.078750006854534149e-02
-4.170550033450126648e-02 9.892500191926956177e-02 -8.687499910593032837e-03
4.672700166702270508e-02 5.692499876022338867e-02 -1.769310049712657928e-02
1.942699961364269257e-02 6.602499634027481079e-02 -2.792220003902912140e-02
5.792700126767158508e-02 5.399810150265693665e-02 -1.078750006854534149e-02
-7.052300125360488892e-02 9.647499769926071167e-02 1.308290008455514908e-02
-5.337300151586532593e-02 1.192250028252601624e-01 -2.474950067698955536e-02
-7.402300089597702026e-02 1.608749926090240479e-01 -2.094450034201145172e-02
-3.132259845733642578e-02 1.255249977111816406e-01 -1.218749955296516418e-02
5.232699960470199585e-02 7.827500253915786743e-02 -1.869429950602352619e-03
5.092699825763702393e-02 1.388249993324279785e-01 -3.142850100994110107e-02
4.287699982523918152e-02 7.442720234394073486e-02 1.406249962747097015e-02
2.066989988088607788e-02 1.006110012531280518e-01 -1.881079934537410736e-02
-1.821199990808963776e-02 9.997499734163284302e-02 -3.143750131130218506e-02
6.702700257301330566e-02 9.314200282096862793e-02 1.581249944865703583e-02
-3.447299823164939880e-02 1.552750021219253540e-01 -3.903229907155036926e-02
3.809659928083419800e-02 5.657500028610229492e-02 -4.613750055432319641e-02
-2.622989937663078308e-03 8.177500218152999878e-02 -1.914269989356398582e-03
-4.812299832701683044e-02 1.388249993324279785e-01 -2.379720099270343781e-03
6.002699956297874451e-02 7.185039669275283813e-02 -2.387499902397394180e-03
1.802700012922286987e-02 8.160019665956497192e-02 1.462499960325658321e-03
-3.692299872636795044e-02 1.293749958276748657e-01 -2.034340053796768188e-03
-7.157299667596817017e-02 1.174890026450157166e-01 -1.673750020563602448e-02
-5.073000211268663406e-03 7.057499885559082031e-02 -5.914709996432065964e-03
1.032700017094612122e-02 6.357499957084655762e-02 1.736260019242763519e-02
-6.632299721240997314e-02 1.703490018844604492e-01 -2.408749982714653015e-02
-7.192300260066986084e-02 8.842019736766815186e-02 -2.968749962747097015e-02
4.307239875197410583e-02 6.355199962854385376e-02 9.615659713745117188e-03
-1.955340057611465454e-02 1.570249944925308228e-01 -6.237499881535768509e-03
4.497700184583663940e-02 9.192500263452529907e-02 2.929040044546127319e-02
6.597699970006942749e-02 6.007499992847442627e-02 -1.616160012781620026e-02
-6.493969820439815521e-03 1.381250023841857910e-01 -1.008750032633543015e-02
6.702700257301330566e-02 1.332249939441680908e-01 -1.526280026882886887e-02
-6.282299757003784180e-02 1.793970018625259399e-01 -4.137500189244747162e-03
7.017699629068374634e-02 1.388249993324279785e-01 -1.150109991431236267e-02
-2.292300015687942505e-02 8.492500334978103638e-02 -3.604910150170326233e-02
-3.972300142049789429e-02 5.832500010728836060e-02 -4.003379866480827332e-02
-1.984149962663650513e-02 1.268720030784606934e-01 -1.673760078847408295e-02
-2.292300015687942505e-02 6.917499750852584839e-02 1.920749992132186890e-02
-7.647299766540527344e-02 1.006750017404556274e-01 -1.954130083322525024e-02
-8.802299946546554565e-02 1.699769943952560425e-01 8.812510408461093903e-03
7.157699763774871826e-02 1.083749979734420776e-01 5.563519895076751709e-03
-1.942300051450729370e-02 9.647499769926071167e-02 -3.172250092029571533e-02
5.127700045704841614e-02 6.987500190734863281e-02 2.327309921383857727e-02
-8.732300251722335815e-02 1.409319937229156494e-01 2.036250010132789612e-02
5.897700041532516479e-02 5.577909946441650391e-02 2.001249976456165314e-02
6.507010012865066528e-02 1.071709990501403809e-01 -5.546669941395521164e-03
6.912700086832046509e-02 9.280920028686523438e-02 1.756249926984310150e-02
-7.491119951009750366e-02 7.127500325441360474e-02 1.336249988526105881e-02
2.864350005984306335e-02 1.138169988989830017e-01 -1.734489947557449341e-02
-3.307300060987472534e-02 5.444059893488883972e-02 6.250289879972115159e-05
-4.987299814820289612e-02 5.606529861688613892e-02 -2.268750034272670746e-02
-8.729849942028522491e-04 1.314750015735626221e-01 -3.360280022025108337e-02
-5.932300165295600891e-02 1.599169969558715820e-01 -2.653750032186508179e-02
-5.231669917702674866e-02 1.569530069828033447e-01 4.001719935331493616e-05
-7.410539686679840088e-02 1.577250063419342041e-01 -1.918750070035457611e-02
-3.727300092577934265e-02 6.846769899129867554e-02 2.666250057518482208e-02
-7.717300206422805786e-02 7.302500307559967041e-02 -1.928620040416717529e-02
-6.842300295829772949e-02 6.142560020089149475e-02 1.266250014305114746e-02
-8.452299982309341431e-02 6.277330219745635986e-02 -3.178749978542327881e-02
-7.192300260066986084e-02 5.940460041165351868e-02 -1.638749986886978149e-02
1.312700007110834122e-02 1.436309963464736938e-01 -3.787500085309147835e-03
-1.347300037741661072e-02 1.853750050067901611e-01 -2.968709915876388550e-02
-3.237299993634223938e-02 7.862500101327896118e-02 1.967119984328746796e-02
7.717700302600860596e-02 8.781570196151733398e-02 1.931249909102916718e-02
-3.902300074696540833e-02 1.188749969005584717e-01 -2.330699935555458069e-02
2.537699975073337555e-02 5.277299880981445312e-02 -1.078750006854534149e-02
-3.062300011515617371e-02 1.720750033855438232e-01 -2.077460056170821190e-03
-2.397299930453300476e-02 9.577500075101852417e-02 2.898880047723650932e-03
-3.307300060987472534e-02 6.637500226497650146e-02 -3.863830119371414185e-02
-6.212300062179565430e-02 9.545759856700897217e-02 -2.373749949038028717e-02
-2.677300013601779938e-02 1.279930025339126587e-01 -2.198749966919422150e-02
-5.897299945354461670e-02 1.125750020146369934e-01 8.512780070304870605e-03
-2.623040042817592621e-02 8.492500334978103638e-02 -3.353749960660934448e-02
4.287699982523918152e-02 5.471140146255493164e-02 1.581249944865703583e-02
2.222700044512748718e-02 6.462500244379043579e-02 -2.888599969446659088e-02
-2.362300083041191101e-02 1.829250007867813110e-01 -2.789809927344322205e-02
7.157699763774871826e-02 1.314750015735626221e-01 -2.023730054497718811e-02
1.347700040787458420e-02 1.230750009417533875e-01 -3.210259974002838135e-02
3.715329989790916443e-02 5.507289990782737732e-02 5.365489982068538666e-03
2.712699957191944122e-02 7.285290211439132690e-02 1.546250004321336746e-02
5.022700130939483643e-02 1.412750035524368286e-01 -5.698139779269695282e-03
5.407699942588806152e-02 6.742499768733978271e-02 2.470030076801776886e-02
-3.272299841046333313e-02 1.783750057220458984e-01 -1.654599979519844055e-02
-9.272989816963672638e-03 6.182499974966049194e-02 1.997430063784122467e-02
1.417700015008449554e-02 6.403999775648117065e-02 -1.358749996870756149e-02
5.453959852457046509e-02 6.707499921321868896e-02 -2.443750016391277313e-02
-4.602300003170967102e-02 5.340610072016716003e-02 -1.603749953210353851e-02
3.272699937224388123e-02 6.007499992847442627e-02 -4.855110123753547668e-02
-6.375379860401153564e-02 1.685750037431716919e-01 8.462499827146530151e-03
3.657700121402740479e-02 9.297499805688858032e-02 -3.456459939479827881e-02
-3.342299908399581909e-02 1.844599992036819458e-01 -3.787500085309147835e-03
-9.601750224828720093e-02 1.537099927663803101e-01 2.956979908049106598e-03
-3.489660099148750305e-02 6.987500190734863281e-02 -3.738750144839286804e-02
-3.237299993634223938e-02 1.500139981508255005e-01 -3.913750126957893372e-02
-4.147300124168395996e-02 1.825779974460601807e-01 -3.703749924898147583e-02
-1.032300014048814774e-02 6.370049715042114258e-02 -3.787500085309147835e-03
-4.462299868464469910e-02 1.806540042161941528e-01 -1.253749988973140717e-02
-7.507299631834030151e-02 1.402249932289123535e-01 -1.616390049457550049e-02
-6.238069850951433182e-03 7.757499814033508301e-02 1.112499972805380821e-03
8.926999755203723907e-03 1.153279989957809448e-01 -3.143750131130218506e-02
-5.267279967665672302e-02 5.412499979138374329e-02 -1.148749981075525284e-02
2.996519953012466431e-02 1.090750023722648621e-01 -2.793749980628490448e-02
-8.473709970712661743e-02 6.672500073909759521e-02 -3.108749911189079285e-02
2.863820083439350128e-02 7.057499885559082031e-02 -4.368750005960464478e-02
-6.735230237245559692e-02 1.440750062465667725e-01 -2.128750085830688477e-02
-3.762299939990043640e-02 9.276620298624038696e-02 3.912500105798244476e-03
3.727699816226959229e-02 1.251749992370605469e-01 -3.207020089030265808e-02
-9.852299839258193970e-02 1.482750028371810913e-01 -2.302220091223716736e-03
-3.229200094938278198e-02 1.161039993166923523e-01 -1.637589931488037109e-02
8.683860301971435547e-03 6.432589888572692871e-02 5.452199839055538177e-03
-1.108449976891279221e-02 5.727500095963478088e-02 1.406249962747097015e-02
-6.912299990653991699e-02 1.717250049114227295e-01 -1.056980036082677543e-04
-9.864349663257598877e-02 1.486250013113021851e-01 1.721250079572200775e-02
-4.630269855260848999e-02 1.713750064373016357e-01 -3.493750095367431641e-02
-8.254940062761306763e-02 7.302500307559967041e-02 6.712500005960464478e-03
4.252700135111808777e-02 6.882499903440475464e-02 1.915870048105716705e-02
-2.082299999892711639e-02 5.432720109820365906e-02 9.162499569356441498e-03
-3.899220004677772522e-02 1.088699996471405029e-01 -1.156760007143020630e-02
-3.482300043106079102e-02 1.475750058889389038e-01 -3.628180176019668579e-02
-1.596489921212196350e-02 1.486440002918243408e-01 -1.008540019392967224e-02
-2.502300031483173370e-02 1.458249986171722412e-01 -2.583150006830692291e-02
-2.383220009505748749e-02 1.062749996781349182e-01 -2.233750000596046448e-02
-1.697300001978874207e-02 5.619779974222183228e-02 -6.937500089406967163e-03
3.062699921429157257e-02 1.118749976158142090e-01 -2.693199925124645233e-02
-5.298040062189102173e-02 1.745249927043914795e-01 -3.353749960660934448e-02
4.921159893274307251e-02 7.127500325441360474e-02 -2.828750014305114746e-02
-2.327300049364566803e-02 1.458249986171722412e-01 -1.527169998735189438e-02
-4.184490069746971130e-02 1.181749999523162842e-01 -2.408749982714653015e-02
-7.507299631834030151e-02 1.003250032663345337e-01 1.078740041702985764e-02
-2.301730029284954071e-02 6.602499634027481079e-02 2.141249924898147583e-02
-5.722299963235855103e-02 1.570129990577697754e-01 -2.583749964833259583e-02
-4.287299886345863342e-02 7.757800072431564331e-02 2.701250091195106506e-02
-6.387300044298171997e-02 6.917499750852584839e-02 3.574559837579727173e-02
-8.644250035285949707e-02 1.601749956607818604e-01 -5.537500139325857162e-03
4.672700166702270508e-02 1.493529975414276123e-01 -2.828750014305114746e-02
2.977010095492005348e-03 1.129250004887580872e-01 -3.388879820704460144e-02
-4.429509863257408142e-02 5.662979930639266968e-02 1.665909949224442244e-04
5.167210102081298828e-02 9.122499823570251465e-02 -1.113750040531158447e-02
6.290920078754425049e-02 8.737500011920928955e-02 2.162500051781535149e-03
2.572700008749961853e-02 1.510750055313110352e-01 -3.281980007886886597e-02
-2.642299979925155640e-02 1.613319963216781616e-01 -3.633749857544898987e-02
-2.502300031483173370e-02 6.077500060200691223e-02 -3.957479819655418396e-02
-7.157299667596817017e-02 5.834839865565299988e-02 7.762500084936618805e-03
-5.407299846410751343e-02 1.258669942617416382e-01 3.212499897927045822e-03
-3.202300146222114563e-02 1.843249946832656860e-01 -1.723439991474151611e-02
2.897449955344200134e-02 1.136249974370002747e-01 -2.058750018477439880e-02
-7.555519789457321167e-02 1.125750020146369934e-01 -1.568749919533729553e-02
-5.057299882173538208e-02 7.547499984502792358e-02 -3.604020178318023682e-02
-8.312299847602844238e-02 6.322500109672546387e-02 -1.872099936008453369e-02
-7.319390028715133667e-02 1.738249957561492920e-01 -8.687499910593032837e-03
-5.302299931645393372e-02 1.710249930620193481e-01 -3.043540008366107941e-02
3.657700121402740479e-02 1.139919981360435486e-01 1.196250040084123611e-02
2.712699957191944122e-02 1.269720047712326050e-01 -1.078750006854534149e-02
8.802700042724609375e-02 1.388249993324279785e-01 -1.474659983068704605e-02
-7.914250344038009644e-02 1.516579985618591309e-01 9.338390082120895386e-03
6.877700239419937134e-02 5.738810077309608459e-02 1.266250014305114746e-02
-8.557300269603729248e-02 1.626549959182739258e-01 -1.638749986886978149e-02
-8.572990074753761292e-03 7.897499948740005493e-02 -2.774650044739246368e-02
-7.472299784421920776e-02 5.865380167961120605e-02 -1.078750006854534149e-02
-7.172990124672651291e-03 8.457499742507934570e-02 -2.971610054373741150e-02
7.962699979543685913e-02 1.286749988794326782e-01 -1.751169934868812561e-02
-4.622760042548179626e-02 9.752500057220458984e-02 1.812509959563612938e-03
-3.727300092577934265e-02 7.083609700202941895e-02 -3.108749911189079285e-02
-9.537439793348312378e-02 1.752250045537948608e-01 1.462499960325658321e-03
4.170539975166320801e-02 6.734430044889450073e-02 1.118510030210018158e-02
-4.847300052642822266e-02 1.647250056266784668e-01 -3.346300125122070312e-02
-4.781230166554450989e-02 5.867499858140945435e-02 2.141249924898147583e-02
2.922699972987174988e-02 6.042499840259552002e-02 -2.713480032980442047e-02
-4.742300137877464294e-02 1.507250070571899414e-01 4.230679944157600403e-03
5.412890017032623291e-02 7.057499885559082031e-02 -2.408749982714653015e-02
3.461860120296478271e-02 1.094250008463859558e-01 -3.178749978542327881e-02
4.942059889435768127e-02 7.582499831914901733e-02 -9.737499989569187164e-03
4.377009812742471695e-03 1.241249963641166687e-01 -9.306779829785227776e-04
3.027700074017047882e-02 1.220680028200149536e-01 -1.638749986886978149e-02
-3.832300007343292236e-02 1.244750022888183594e-01 -2.609330043196678162e-02
-2.572299912571907043e-02 8.107499778270721436e-02 -3.614649921655654907e-02
7.016039639711380005e-02 1.167749986052513123e-01 -1.743750087916851044e-02
5.372700095176696777e-02 1.332249939441680908e-01 -4.611160140484571457e-03
-7.437299937009811401e-02 1.717250049114227295e-01 -8.115890435874462128e-03
5.016359966248273849e-03 9.358579665422439575e-02 -2.140399999916553497e-02
2.502699941396713257e-02 1.045200005173683167e-01 -1.183750014752149582e-02
-8.347299695014953613e-02 8.107499778270721436e-02 7.498160004615783691e-03
2.887699939310550690e-02 1.482750028371810913e-01 -4.003290086984634399e-03
-9.292519837617874146e-02 1.790750026702880859e-01 9.862500242888927460e-03
1.977699995040893555e-02 1.304289996623992920e-01 -3.318750113248825073e-02
-3.263650089502334595e-02 1.741749942302703857e-01 -1.498750038444995880e-02
5.337699875235557556e-02 7.862500101327896118e-02 1.238169986754655838e-02
2.126540057361125946e-02 7.182560116052627563e-02 -3.601720184087753296e-02
7.157699763774871826e-02 1.125750020146369934e-01 -1.559470035135746002e-02
1.611289940774440765e-02 8.947499841451644897e-02 -1.218749955296516418e-02
1.557699963450431824e-02 6.099950149655342102e-02 -1.463750004768371582e-02
1.490109972655773163e-02 1.223749965429306030e-01 -3.038750030100345612e-02
-3.322989912703633308e-03 1.519159972667694092e-01 -2.163749933242797852e-02
-7.454200088977813721e-02 8.212500065565109253e-02 -2.408749982714653015e-02
-8.576239645481109619e-02 7.512500137090682983e-02 2.162500051781535149e-03
4.532700031995773315e-02 1.076750010251998901e-01 -2.358919940888881683e-03
-2.152179926633834839e-02 5.552500113844871521e-02 -1.918750070035457611e-02
3.486720100045204163e-02 5.707500129938125610e-02 1.224000006914138794e-04
