6.335133056640625000e+02 -1.697243957519531250e+02 -2.300405883789062500e+02
8.265750122070312500e+02 -7.169717407226562500e+01 -4.500146484375000000e+01
5.102752075195312500e+02 8.301115036010742188e+00 5.157689208984375000e+02
6.721395263671875000e+02 5.308609008789062500e+01 5.140660400390625000e+02
8.191524658203125000e+02 -1.162036743164062500e+02 7.530263671875000000e+02
6.815213012695312500e+02 -9.040483856201171875e+01 3.053099670410156250e+02
4.429269409179687500e+02 1.242250061035156250e+02 8.871215820312500000e+02
6.963079223632812500e+02 -2.295130920410156250e+02 2.893603515625000000e+01
6.963037719726562500e+02 -2.295205383300781250e+02 2.893725585937500000e+01
6.354259033203125000e+02 7.322356414794921875e+01 4.035746765136718750e+02
8.486958618164062500e+02 3.672390747070312500e+01 -5.662001342773437500e+02
8.065718994140625000e+02 -3.159222717285156250e+02 -4.898110961914062500e+02
8.328761596679687500e+02 -1.263988342285156250e+02 1.863984680175781250e+02
9.904103393554687500e+02 -1.067295646667480469e+01 2.578238220214843750e+02
5.709736938476562500e+02 -4.588973999023437500e+00 4.508901977539062500e+02
6.916029663085937500e+02 -2.575814208984375000e+02 -1.735227050781250000e+02
9.390354614257812500e+02 -1.205550613403320312e+02 3.276159667968750000e+01
6.912637939453125000e+02 -1.173907775878906250e+02 4.029841308593750000e+02
4.855435791015625000e+02 1.267830352783203125e+02 9.513746337890625000e+02
6.210159912109375000e+02 -1.626720275878906250e+02 1.873579711914062500e+02
6.821068115234375000e+02 -2.721016235351562500e+02 -2.181961059570312500e+02
8.754745483398437500e+02 -2.340496673583984375e+02 -3.883087158203125000e+02
8.114736938476562500e+02 -1.857073516845703125e+02 -3.374066772460937500e+02
7.687277221679687500e+02 -3.216448974609375000e+02 -2.163256835937500000e+02
8.162355957031250000e+02 -1.529398498535156250e+02 5.367526245117187500e+02
7.478414916992187500e+02 -9.243946075439453125e+01 -3.672216186523437500e+02
8.994147338867187500e+02 -1.413251037597656250e+02 3.546301269531250000e+01
6.706300048828125000e+02 -2.746397399902343750e+02 1.881927490234375000e+01
5.894335937500000000e+02 -6.622463226318359375e+01 7.104663085937500000e+01
7.357754516601562500e+02 -2.740317687988281250e+02 -1.516878662109375000e+02
8.214497680664062500e+02 -7.804597473144531250e+01 -1.059603881835937500e+02
7.391192626953125000e+02 -1.011284103393554688e+02 6.379483642578125000e+02
5.146708984375000000e+02 -2.120672912597656250e+02 5.762288818359375000e+02
7.192841796875000000e+02 -2.797321510314941406e+01 -2.140288696289062500e+02
7.141176147460937500e+02 5.919828414916992188e+00 -3.764923095703125000e+01
6.524266357421875000e+02 -1.456693725585937500e+02 -2.773046264648437500e+02
6.483326416015625000e+02 -3.315912475585937500e+02 -4.821223754882812500e+02
6.774255981445312500e+02 -2.942528381347656250e+02 -5.554168701171875000e+01
4.808872070312500000e+02 -9.193443298339843750e+01 4.586717529296875000e+02
6.511019287109375000e+02 -1.102138214111328125e+02 2.737879333496093750e+02
7.530479125976562500e+02 -2.517447509765625000e+02 -1.630548095703125000e+01
6.083310546875000000e+02 -6.151332092285156250e+01 6.521807250976562500e+02
9.448134155273437500e+02 -2.085570220947265625e+02 6.952137451171875000e+02
5.545474243164062500e+02 -7.744249343872070312e+00 2.643425292968750000e+02
6.226742553710937500e+02 -1.534734649658203125e+02 1.811239318847656250e+02
8.084770507812500000e+02 -2.655783081054687500e+02 -1.492478027343750000e+02
8.275978393554687500e+02 -1.098724060058593750e+02 -5.208648681640625000e+01
7.410343627929687500e+02 -8.762808990478515625e+01 3.776931152343750000e+02
8.057487792968750000e+02 -1.421965637207031250e+02 4.631133728027343750e+02
5.208096313476562500e+02 3.743192291259765625e+01 5.807544555664062500e+02
7.150065307617187500e+02 -3.373223114013671875e+01 -2.347266235351562500e+02
8.919955444335937500e+02 -8.302912139892578125e+01 1.405881347656250000e+02
6.553131713867187500e+02 4.901381683349609375e+01 5.174768066406250000e+02
8.260780639648437500e+02 -2.073298187255859375e+02 -3.017816162109375000e+02
5.685380249023437500e+02 -1.676125640869140625e+02 3.519714355468750000e+00
7.659005737304687500e+02 -3.329622192382812500e+02 -4.748178100585937500e+02
6.029812011718750000e+02 -8.154109191894531250e+01 -1.844086303710937500e+02
6.404577026367187500e+02 -3.108492736816406250e+02 -2.136256103515625000e+02
6.069957275390625000e+02 -1.529899902343750000e+02 1.465502319335937500e+02
7.872846069335937500e+02 -2.429296875000000000e+02 -9.445837402343750000e+01
9.147008666992187500e+02 -1.430583343505859375e+02 -4.205108642578125000e+01
5.994855346679687500e+02 -1.021424102783203125e+02 5.545194091796875000e+02
7.662362670898437500e+02 3.537671661376953125e+01 -5.093809204101562500e+02
6.139620361328125000e+02 4.711445617675781250e+01 1.672093505859375000e+02
6.268120117187500000e+02 -1.301086883544921875e+02 -2.193148803710937500e+02
6.146452026367187500e+02 -1.088930587768554688e+02 6.529707641601562500e+02
7.743953247070312500e+02 1.101496315002441406e+01 4.447612609863281250e+02
6.393967285156250000e+02 -5.479218292236328125e+01 -1.602444458007812500e+02
9.273849487304687500e+02 -1.090966796875000000e+02 4.104089355468750000e+01
5.630794677734375000e+02 -9.645515441894531250e+01 2.484130859375000000e+00
6.001007690429687500e+02 -9.116220092773437500e+01 -1.058070068359375000e+02
8.905841674804687500e+02 2.233257293701171875e-01 -5.681580200195312500e+02
7.635812377929687500e+02 -9.790921783447265625e+01 3.521915588378906250e+02
5.510994873046875000e+02 -6.400072097778320312e+00 4.791104736328125000e+02
7.186949462890625000e+02 -2.935388183593750000e+02 -2.081162109375000000e+02
7.019647827148437500e+02 3.616733551025390625e+01 8.671380615234375000e+01
9.327120971679687500e+02 -2.122884368896484375e+02 6.921231079101562500e+02
6.614606933593750000e+02 -1.128286666870117188e+02 6.267037353515625000e+02
7.156710815429687500e+02 -2.999798278808593750e+02 -2.142983398437500000e+02
8.516257934570312500e+02 -1.150928192138671875e+02 1.956388549804687500e+02
6.579246826171875000e+02 -2.926461486816406250e+02 -2.055626831054687500e+02
8.179494628906250000e+02 -2.401814270019531250e+02 -7.263848876953125000e+01
7.726848144531250000e+02 -9.107782745361328125e+01 6.758634033203125000e+02
4.681314697265625000e+02 -5.133507537841796875e+01 4.963258056640625000e+02
6.401376342773437500e+02 -1.916682434082031250e+02 -2.869613037109375000e+02
7.894184570312500000e+02 -1.522456817626953125e+02 -2.680356445312500000e+02
8.256302490234375000e+02 -1.711370849609375000e+02 -1.350403137207031250e+02
6.704808959960937500e+02 -5.025782012939453125e+01 -3.371289672851562500e+02
5.605681762695312500e+02 -1.528763275146484375e+02 1.055493164062500000e+02
6.247324829101562500e+02 -1.975538787841796875e+02 1.036295776367187500e+02
8.016904907226562500e+02 -3.136658325195312500e+02 -3.334523925781250000e+02
3.105436401367187500e+02 -2.280904693603515625e+02 8.618447265625000000e+02
6.482747192382812500e+02 -2.317193450927734375e+02 2.374041748046875000e+01
6.496588134765625000e+02 6.358055114746093750e+01 4.718673095703125000e+02
2.464845733642578125e+02 -1.967720642089843750e+02 9.599464721679687500e+02
6.512030029296875000e+02 -1.210438232421875000e+02 5.073084716796875000e+02
4.691450805664062500e+02 -2.220031890869140625e+02 7.595017089843750000e+02
6.126739501953125000e+02 -1.026171798706054688e+02 6.589948120117187500e+02
6.233729248046875000e+02 -1.968959350585937500e+02 1.309410705566406250e+02
6.152500000000000000e+02 -1.881750335693359375e+02 -1.390269165039062500e+02
6.593948364257812500e+02 -2.594659729003906250e+02 3.951757812500000000e+01
8.161072387695312500e+02 -3.100204467773437500e+00 4.819035644531250000e+02
8.073997802734375000e+02 6.988828659057617188e+00 2.456655883789062500e+02
3.958964233398437500e+02 -1.941653747558593750e+02 8.080399169921875000e+02
6.343984375000000000e+02 -3.251124572753906250e+02 -1.921190185546875000e+02
7.455437011718750000e+02 -2.331957550048828125e+02 4.838696289062500000e+01
6.558004150390625000e+02 -2.890275001525878906e+01 -2.186125488281250000e+02
8.433019409179687500e+02 -7.227947235107421875e+01 3.889516601562500000e+02
6.310241699218750000e+02 -4.771747589111328125e+01 -1.007422485351562500e+02
4.349644775390625000e+02 1.025273208618164062e+02 7.695639648437500000e+02
5.574792480468750000e+02 -4.705592346191406250e+01 -5.626868286132812500e+02
7.810953979492187500e+02 -2.639302368164062500e+02 -1.314456176757812500e+02
8.451056518554687500e+02 -2.880764465332031250e+02 -3.094006958007812500e+02
9.356289672851562500e+02 -1.674109497070312500e+02 2.876812744140625000e+01
6.905423583984375000e+02 8.333377838134765625e-01 1.392205810546875000e+01
6.736906127929687500e+02 6.539675903320312500e+01 2.322615051269531250e+02
7.717016601562500000e+02 -9.713934326171875000e+01 6.781492919921875000e+02
5.433677368164062500e+02 -4.418294525146484375e+01 2.588208007812500000e+02
5.977020874023437500e+02 -9.591154479980468750e+01 2.658185119628906250e+02
6.672058715820312500e+02 -5.264177703857421875e+01 -4.168751831054687500e+02
7.830975341796875000e+02 -1.358515319824218750e+02 1.573726501464843750e+02
4.486787719726562500e+02 8.964119720458984375e+01 7.816700439453125000e+02
6.110660400390625000e+02 -2.140315093994140625e+02 -2.079548339843750000e+02
8.876353149414062500e+02 -1.342210998535156250e+02 7.583215332031250000e+02
8.027167968750000000e+02 -4.929270172119140625e+01 -9.449285888671875000e+01
8.531433105468750000e+02 -2.894357604980468750e+02 -4.861777954101562500e+02
5.782011108398437500e+02 -3.238859558105468750e+02 -2.819346313476562500e+02
5.511844482421875000e+02 -1.968095092773437500e+02 4.400862731933593750e+02
1.021269104003906250e+03 -1.787997436523437500e+02 9.151004638671875000e+02
1.004770202636718750e+03 -2.348720245361328125e+02 8.471121826171875000e+02
6.182733154296875000e+02 -1.571486663818359375e+02 -3.347028198242187500e+02
1.067113037109375000e+03 -2.510540313720703125e+02 9.092830810546875000e+02
7.358733520507812500e+02 -3.729225158691406250e+02 -5.702445678710937500e+02
4.686779174804687500e+02 -6.882112884521484375e+01 5.351265869140625000e+02
5.036741333007812500e+02 -2.456155776977539062e+01 5.316717529296875000e+02
7.625388183593750000e+02 -3.008414916992187500e+02 -1.549701538085937500e+02
6.102381591796875000e+02 -2.144164123535156250e+02 -2.113756713867187500e+02
8.577260131835937500e+02 -2.842738952636718750e+02 -3.417125854492187500e+02
6.539730834960937500e+02 2.738172340393066406e+01 7.139643554687500000e+02
8.088128051757812500e+02 -3.689096679687500000e+02 -5.981265258789062500e+02
8.262853393554687500e+02 -2.272145690917968750e+02 -2.283397827148437500e+02
8.515010375976562500e+02 -6.249892425537109375e+01 1.965326538085937500e+02
1.070161743164062500e+03 -2.461082458496093750e+02 9.382578125000000000e+02
8.288139648437500000e+02 -2.646105651855468750e+02 -3.788232116699218750e+02
7.723372192382812500e+02 -2.940888977050781250e+02 -1.131404418945312500e+02
8.310279541015625000e+02 -8.028523254394531250e+01 4.699804687500000000e+01
8.294418945312500000e+02 -1.149724121093750000e+02 -6.054064941406250000e+01
7.353533325195312500e+02 -2.640296325683593750e+02 -1.386456298828125000e+02
7.000436401367187500e+02 1.411153984069824219e+01 -4.428959350585937500e+02
6.227467651367187500e+02 -7.369086456298828125e+01 7.250527954101562500e+02
8.403735961914062500e+02 -1.625177307128906250e+02 6.201072998046875000e+02
8.491417846679687500e+02 -2.196109161376953125e+02 -1.144941406250000000e+02
6.513533325195312500e+02 4.728011322021484375e+01 8.219299316406250000e+01
9.404912719726562500e+02 -2.201261444091796875e+02 7.696140136718750000e+02
7.358637084960937500e+02 -1.088096923828125000e+02 6.326064453125000000e+02
5.098121337890625000e+02 -1.459385395050048828e+01 6.163742675781250000e+02
8.649024047851562500e+02 -3.071702270507812500e+02 -5.412758178710937500e+02
8.161338500976562500e+02 -1.726704254150390625e+02 6.910038452148437500e+02
9.396942749023437500e+02 -1.514452362060546875e+02 -2.489843750000000000e+01
4.577695312500000000e+02 1.281513671875000000e+02 8.369311523437500000e+02
1.044697631835937500e+03 -1.912304687500000000e+02 9.315101318359375000e+02
4.729312133789062500e+02 5.561035156250000000e+01 6.312551269531250000e+02
8.196424560546875000e+02 -4.158064270019531250e+01 5.469128417968750000e+01
5.091557617187500000e+02 -8.426399230957031250e+01 -5.902055053710937500e+02
7.325609741210937500e+02 -6.903041839599609375e+01 3.212619018554687500e+02
7.615455932617187500e+02 4.552487182617187500e+01 2.512658691406250000e+02
5.988193359375000000e+02 -2.395657806396484375e+02 -5.554559326171875000e+01
6.868142700195312500e+02 -3.653931427001953125e+01 -3.415912475585937500e+02
5.579996948242187500e+02 -8.960063934326171875e+01 3.244030761718750000e+01
7.699724731445312500e+02 -1.253214569091796875e+02 1.971930236816406250e+02
8.617254028320312500e+02 -1.343449096679687500e+02 8.909246826171875000e+01
6.223623046875000000e+02 -1.033996200561523438e+02 6.054377441406250000e+02
7.269840087890625000e+02 -1.074975204467773438e+02 6.083944702148437500e+02
6.519885253906250000e+02 1.259595298767089844e+01 -8.411572265625000000e+01
4.375452270507812500e+02 1.010962677001953125e+02 7.725362548828125000e+02
8.028444213867187500e+02 -1.025542755126953125e+02 3.467546691894531250e+02
7.372748413085937500e+02 5.801333618164062500e+01 4.715954284667968750e+02
7.328323974609375000e+02 -3.367178726196289062e+01 6.429578857421875000e+02
6.082750854492187500e+02 -1.872934417724609375e+02 -1.673175048828125000e+02
7.092005004882812500e+02 -3.060167236328125000e+02 -3.635009765625000000e+02
6.660066528320312500e+02 -2.690969543457031250e+02 3.196563720703125000e+01
5.390433959960937500e+02 -2.414801788330078125e+02 -5.749320678710937500e+02
6.001679077148437500e+02 -7.677883148193359375e+01 5.692612915039062500e+02
5.528369750976562500e+02 -1.627184906005859375e+02 8.400506591796875000e+01
8.912826538085937500e+02 -1.501565551757812500e+02 8.866754150390625000e+01
6.075325927734375000e+02 -2.835984497070312500e+02 -1.250275878906250000e+02
6.119996948242187500e+02 -8.236734008789062500e+01 -1.961937255859375000e+02
7.488693847656250000e+02 -9.316516876220703125e+01 2.806922912597656250e+02
5.827705688476562500e+02 -1.950867462158203125e+02 8.871386718750000000e+01
9.613657836914062500e+02 -2.234733734130859375e+02 7.975043334960937500e+02
3.933703002929687500e+02 -2.011913604736328125e+02 8.018684082031250000e+02
8.792368774414062500e+02 -2.157916107177734375e+02 -1.361773071289062500e+02
1.000910949707031250e+03 -1.163539886474609375e+00 2.621779479980468750e+02
8.229747314453125000e+02 -9.072660827636718750e+01 -3.243756103515625000e+01
9.209400024414062500e+02 -1.449123840332031250e+02 -4.070556640625000000e+01
6.644885864257812500e+02 -4.930216217041015625e+01 -4.225770874023437500e+02
6.320537109375000000e+02 -1.262514190673828125e+02 6.221467285156250000e+02
8.220347900390625000e+02 -1.702180786132812500e+02 -2.688189697265625000e+01
5.333807983398437500e+02 -1.027877044677734375e+02 9.410888671875000000e+01
5.789576416015625000e+02 -3.164672546386718750e+02 -1.880516357421875000e+02
8.650025024414062500e+02 -2.386702728271484375e+02 -1.747909545898437500e+02
8.576151123046875000e+02 -1.772700958251953125e+02 5.703237915039062500e+02
7.318386230468750000e+02 -8.843321990966796875e+01 -3.001563110351562500e+02
5.574238891601562500e+02 1.450046348571777344e+01 5.635678710937500000e+02
6.408518066406250000e+02 -9.911615753173828125e+01 7.218466186523437500e+02
8.161794433593750000e+02 -1.426649627685546875e+02 1.073499145507812500e+02
5.353364868164062500e+02 -8.236169433593750000e+01 1.453660583496093750e+02
7.202598876953125000e+02 -2.570675354003906250e+02 -1.485505371093750000e+02
7.391000366210937500e+02 -1.263604583740234375e+02 4.170936279296875000e+02
5.199414062500000000e+02 2.020126152038574219e+01 5.408663330078125000e+02
5.876165771484375000e+02 -8.651852416992187500e+01 -4.466888427734375000e+01
8.230865478515625000e+02 -1.284660339355468750e+02 1.899922485351562500e+02
8.553609619140625000e+02 -8.364087677001953125e+01 5.401306152343750000e+00
7.281206054687500000e+02 -7.713990020751953125e+01 3.222768554687500000e+02
6.880469360351562500e+02 -3.432389831542968750e+01 -3.313422851562500000e+02
7.841663818359375000e+02 -1.828809814453125000e+02 1.156471557617187500e+02
6.725406494140625000e+02 -2.159727020263671875e+02 1.258826293945312500e+02
5.788342895507812500e+02 -1.514211120605468750e+02 1.696588134765625000e+02
8.265896606445312500e+02 -2.579006958007812500e+01 2.679456176757812500e+02
6.019859619140625000e+02 -3.310697021484375000e+02 -1.833092651367187500e+02
7.632301635742187500e+02 -2.900948791503906250e+02 -9.328948974609375000e+01
8.204561767578125000e+02 -4.211256408691406250e+01 4.450622558593750000e+00
9.169634399414062500e+02 -1.303837585449218750e+02 -2.181329345703125000e+01
4.194715576171875000e+02 -1.914681701660156250e+02 7.819896240234375000e+02
8.152675781250000000e+02 -1.491341705322265625e+02 4.705554199218750000e+01
6.561013793945312500e+02 -1.176299476623535156e+01 -1.721007690429687500e+02
6.089774780273437500e+02 4.700985717773437500e+01 3.337921752929687500e+02
6.188228149414062500e+02 -5.739655303955078125e+01 -8.042504882812500000e+01
6.075219116210937500e+02 -1.773503875732421875e+02 -5.475463867187500000e+01
5.883880615234375000e+02 -5.836778259277343750e+01 6.721514892578125000e+01
8.104675292968750000e+02 3.273792266845703125e-01 2.418541259765625000e+02
4.730494384765625000e+02 -1.874227752685546875e+02 7.133338623046875000e+02
1.001307800292968750e+03 -1.698200988769531250e+02 8.996238403320312500e+02
7.854510498046875000e+02 -1.014002685546875000e+02 2.363696594238281250e+02
5.266697998046875000e+02 -1.751486968994140625e+02 7.864306640625000000e+01
6.294432983398437500e+02 -1.188664627075195312e+02 6.131010742187500000e+02
6.616389770507812500e+02 -3.189152526855468750e+02 -1.069509887695312500e+02
5.738693847656250000e+02 -3.624652099609375000e+01 8.311523437500000000e+01
6.020653686523437500e+02 -2.433828430175781250e+02 -8.316479492187500000e+01
6.182462768554687500e+02 -1.445782012939453125e+02 1.791759643554687500e+02
5.119259643554687500e+02 -1.100865478515625000e+02 -5.784244995117187500e+02
6.249443359375000000e+02 -2.663384704589843750e+02 -3.986449584960937500e+02
6.883944702148437500e+02 -2.667990417480468750e+02 -1.312835693359375000e+01
7.854384155273437500e+02 -9.307386779785156250e+01 7.047977905273437500e+02
6.898693237304687500e+02 -2.597730102539062500e+02 -8.019956970214843750e+01
6.020982666015625000e+02 -2.941281738281250000e+02 -1.572060546875000000e+02
7.884564819335937500e+02 -1.046123657226562500e+02 3.274024047851562500e+02
8.587639770507812500e+02 -1.929202728271484375e+02 -3.825714111328125000e+01
7.591998291015625000e+02 -8.962658691406250000e+01 6.263479614257812500e+02
7.645872192382812500e+02 -5.662003326416015625e+01 3.358104858398437500e+02
7.120397338867187500e+02 5.590106201171875000e+01 2.103023681640625000e+02
7.577031250000000000e+02 -3.296974182128906250e+02 -4.583291625976562500e+02
6.229101562500000000e+02 -1.608832092285156250e+02 5.278710327148437500e+02
6.047476196289062500e+02 -1.733966217041015625e+02 1.000697021484375000e+02
7.092281494140625000e+02 -1.212428207397460938e+02 4.508748779296875000e+02
8.919179077148437500e+02 -2.072870788574218750e+02 7.394735717773437500e+02
9.329013061523437500e+02 -1.214361114501953125e+02 -5.488845825195312500e+02
7.647258911132812500e+02 -3.755876464843750000e+02 -5.890667114257812500e+02
5.377630004882812500e+02 -7.502111816406250000e+01 1.456333312988281250e+02
6.308896484375000000e+02 -2.119940948486328125e+02 -1.948919677734375000e+01
6.251769409179687500e+02 -1.642381439208984375e+02 1.493056030273437500e+02
4.590643310546875000e+02 6.736447143554687500e+01 6.351485595703125000e+02
8.475249633789062500e+02 -2.043882446289062500e+02 -8.174163818359375000e+01
7.137957763671875000e+02 -1.257673835754394531e+01 -1.244057006835937500e+02
8.594730834960937500e+02 -2.446675262451171875e+02 -2.034351196289062500e+02
6.058812866210937500e+02 -1.409023590087890625e+02 1.755752563476562500e+02
6.384785766601562500e+02 -1.161386947631835938e+02 -3.769288330078125000e+02
7.447440795898437500e+02 -3.154405212402343750e+02 -1.765437622070312500e+02
6.831973876953125000e+02 6.805809020996093750e+01 -5.904909057617187500e+02
6.162750244140625000e+02 -2.206568603515625000e+02 -2.450180664062500000e+02
8.388145751953125000e+02 -9.096994400024414062e+00 -4.940086059570312500e+02
7.724529418945312500e+02 -3.411807556152343750e+02 -2.628483276367187500e+02
7.682941284179687500e+02 -2.086532592773437500e+00 5.626245727539062500e+02
6.220692749023437500e+02 -2.803742370605468750e+02 -3.740836791992187500e+02
8.858082885742187500e+02 -7.789514160156250000e+01 2.844595031738281250e+02
6.866612548828125000e+02 -1.040846252441406250e+02 3.705969848632812500e+02
8.379479370117187500e+02 -1.733413238525390625e+02 -3.141918945312500000e+01
7.075519409179687500e+02 8.160643005371093750e+01 3.161413269042968750e+02
5.740616455078125000e+02 8.091268539428710938e+00 -5.794413452148437500e+02
6.659782714843750000e+02 -1.117639846801757812e+02 5.878177490234375000e+02
6.982749023437500000e+02 1.584533500671386719e+01 5.680224609375000000e+02
4.494052734375000000e+02 8.700045776367187500e+01 8.014575195312500000e+02
8.929519653320312500e+02 -1.827600708007812500e+02 5.674291381835937500e+02
7.637010498046875000e+02 -2.946601562500000000e+02 -1.709199829101562500e+02
9.078178100585937500e+02 -1.293353271484375000e+02 7.984677734375000000e+02
5.663477783203125000e+02 -2.702429580688476562e+01 4.264371948242187500e+02
2.752615966796875000e+02 -2.169971466064453125e+02 8.981757812500000000e+02
5.889189453125000000e+02 -1.641568908691406250e+02 4.457937622070312500e+02
5.764545898437500000e+02 1.321835136413574219e+01 4.802805480957031250e+02
6.631427612304687500e+02 8.077664947509765625e+01 3.733231201171875000e+02
6.674750976562500000e+02 2.003866386413574219e+01 -2.618402099609375000e+01
6.868223266601562500e+02 -1.146392898559570312e+02 6.939327392578125000e+02
6.225043945312500000e+02 6.878954315185546875e+01 4.210710144042968750e+02
5.311388549804687500e+02 -1.688623657226562500e+02 6.243508300781250000e+02
6.004677734375000000e+02 -1.272803649902343750e+02 5.042597656250000000e+02
8.156007080078125000e+02 -1.386844482421875000e+02 1.079580688476562500e+02
7.714779663085937500e+02 -1.173203201293945312e+02 -2.331481018066406250e+02
8.386926269531250000e+02 -1.614305877685546875e+02 4.868156127929687500e+02
5.746627197265625000e+02 -2.533334655761718750e+02 -2.822075195312500000e+02
6.035322265625000000e+02 -1.264543304443359375e+02 2.059529418945312500e+02
9.335361938476562500e+02 -2.125999755859375000e+02 7.951088867187500000e+02
8.344203491210937500e+02 -2.105573883056640625e+02 -3.006118164062500000e+02
5.783697509765625000e+02 -4.237001800537109375e+01 4.000628356933593750e+02
6.185687866210937500e+02 -2.335263366699218750e+02 -3.739809570312500000e+02
7.190595092773437500e+02 -1.940538406372070312e+01 6.617048339843750000e+02
8.467624511718750000e+02 4.246280670166015625e+01 -5.853710327148437500e+02
6.772619628906250000e+02 8.993103027343750000e+01 3.332067565917968750e+02
7.483530273437500000e+02 -1.322840309143066406e+01 -2.627673339843750000e+01
6.942232666015625000e+02 -2.500891265869140625e+02 -1.248925781250000000e+01
5.673517456054687500e+02 -4.175742340087890625e+01 3.625522766113281250e+02
7.100669555664062500e+02 -2.475066680908203125e+02 -1.383632202148437500e+02
7.973701782226562500e+02 -1.876536750793457031e+01 -5.664501953125000000e+01
5.787568359375000000e+02 -1.110243835449218750e+02 6.446585693359375000e+02
5.483013305664062500e+02 -6.192788696289062500e+01 4.593830261230468750e+02
7.330352783203125000e+02 -2.929435424804687500e+02 -2.644514160156250000e+02
6.516842651367187500e+02 -3.030366210937500000e+02 -4.629193115234375000e+01
5.161867675781250000e+02 -1.141076507568359375e+02 1.710930786132812500e+02
6.397680053710937500e+02 -1.212468643188476562e+02 3.800353088378906250e+02
5.950828247070312500e+02 -2.290001373291015625e+02 -2.119781494140625000e+02
8.308182983398437500e+02 -1.148357543945312500e+02 -1.601591186523437500e+02
7.315391845703125000e+02 1.776908302307128906e+01 4.133325195312500000e+01
4.944701538085937500e+02 -2.939952659606933594e+01 5.797054443359375000e+02
6.904056396484375000e+02 8.063210296630859375e+01 3.811158447265625000e+02
8.228836669921875000e+02 -4.888837432861328125e+01 2.759298095703125000e+02
8.973543090820312500e+02 -1.401741333007812500e+02 4.510321044921875000e+01
7.735408325195312500e+02 1.474507331848144531e+01 4.698738403320312500e+02
5.245617065429687500e+02 -1.279602355957031250e+02 1.860895690917968750e+02
7.967791748046875000e+02 -4.266816711425781250e+01 3.456252136230468750e+02
6.411310424804687500e+02 5.478511047363281250e+01 5.064163818359375000e+02
8.480563964843750000e+02 -2.875386657714843750e+02 -3.470833740234375000e+02
4.118518676757812500e+02 -2.114024200439453125e+02 7.631835327148437500e+02
6.859359130859375000e+02 -2.798452949523925781e+01 -3.596561889648437500e+02
5.900820312500000000e+02 -1.231446151733398438e+02 7.845336914062500000e+01
9.033859252929687500e+02 -2.033848876953125000e+02 7.698690185546875000e+02
6.243816528320312500e+02 -2.396364021301269531e+01 -2.863323974609375000e+01
8.364166259765625000e+02 -2.975690612792968750e+02 -5.020103149414062500e+02
8.688850708007812500e+02 -1.754628143310546875e+02 -1.075461425781250000e+02
8.688934936523437500e+02 -1.755686187744140625e+02 -1.075348510742187500e+02
4.021049804687500000e+02 -1.675172271728515625e+02 8.273826904296875000e+02
4.723170776367187500e+02 -8.254309082031250000e+01 4.685089111328125000e+02
6.903683471679687500e+02 -3.077800903320312500e+02 -3.778087158203125000e+02
8.153756103515625000e+02 6.448913574218750000e+01 -5.791325073242187500e+02
6.255413818359375000e+02 -3.159415283203125000e+02 -2.446021728515625000e+02
8.432782592773437500e+02 -2.512844085693359375e+02 -3.024992675781250000e+02
6.160103149414062500e+02 -1.289381256103515625e+02 4.395944213867187500e+02
5.802713012695312500e+02 -2.347960968017578125e+02 -7.167547607421875000e+01
1.096766235351562500e+03 -2.209297180175781250e+02 9.538412475585937500e+02
6.842919921875000000e+02 -3.259505462646484375e+01 -3.604135131835937500e+02
8.085153198242187500e+02 -1.086849365234375000e+02 1.995970458984375000e+02
8.617250366210937500e+02 -4.616984558105468750e+01 3.879567871093750000e+02
8.922107543945312500e+02 5.958761215209960938e+00 -5.708104858398437500e+02
8.716130981445312500e+02 1.678445243835449219e+01 -5.673546752929687500e+02
8.413795166015625000e+02 -1.731325683593750000e+02 -1.322310180664062500e+02
8.226693115234375000e+02 -9.792528152465820312e+00 3.987772827148437500e+02
5.603131713867187500e+02 -3.184046936035156250e+01 4.539387207031250000e+02
7.438679809570312500e+02 -3.001873168945312500e+02 -2.204997558593750000e+02
5.824176025390625000e+02 6.626993179321289062e+00 5.688950195312500000e+02
6.246083984375000000e+02 -2.308747100830078125e+02 -7.236401367187500000e+01
8.746201782226562500e+02 -1.789037170410156250e+02 -1.674432373046875000e+01
6.516139526367187500e+02 6.453530120849609375e+01 2.100007019042968750e+02
8.214183959960937500e+02 -2.739011230468750000e+02 -2.574782104492187500e+02
6.991377563476562500e+02 -1.196064910888671875e+02 5.821503906250000000e+02
7.056709594726562500e+02 2.570302963256835938e+00 -4.264121704101562500e+02
5.050913696289062500e+02 -9.659470367431640625e+01 4.553805541992187500e+02
9.408457641601562500e+02 -1.175851898193359375e+02 -1.267462158203125000e+01
7.632130126953125000e+02 -1.041614685058593750e+02 6.569436645507812500e+02
7.313036499023437500e+02 -1.654289855957031250e+02 1.883701782226562500e+02
8.392525634765625000e+02 -1.006913299560546875e+02 3.738322448730468750e+02
4.422453002929687500e+02 7.043655395507812500e+01 8.276263427734375000e+02
6.162532348632812500e+02 -1.171658325195312500e+02 -7.191601562500000000e+01
6.158884277343750000e+02 4.525465393066406250e+01 3.808723754882812500e+02
5.446438598632812500e+02 -5.285471343994140625e+01 2.526249389648437500e+02
5.891596069335937500e+02 -1.360285797119140625e+02 2.393707275390625000e+01
6.767012329101562500e+02 -6.248888015747070312e+00 -8.212347412109375000e+01
8.716520385742187500e+02 -7.879486083984375000e+01 3.266733398437500000e+02
5.900326538085937500e+02 -2.375318603515625000e+02 -5.149218750000000000e+01
6.217897949218750000e+02 -1.834046630859375000e+02 7.500634765625000000e+01
6.703125610351562500e+02 -2.981350097656250000e+02 -3.816320800781250000e+01
7.971406860351562500e+02 -3.331441650390625000e+02 -3.158588867187500000e+02
6.524690551757812500e+02 -2.518289031982421875e+02 -7.690850830078125000e+01
7.918490600585937500e+02 -2.507094268798828125e+02 -9.630004882812500000e+00
4.351704711914062500e+02 -1.878321685791015625e+02 7.640792236328125000e+02
5.776630249023437500e+02 -3.397010803222656250e+01 1.264691162109375000e+02
8.677721557617187500e+02 -1.004372100830078125e+02 -4.527929077148437500e+02
8.331016235351562500e+02 -1.303660278320312500e+02 1.368336181640625000e+02
6.233960571289062500e+02 -1.604795379638671875e+02 5.267738037109375000e+02
9.430059204101562500e+02 -1.465571289062500000e+02 2.607482910156250000e+00
5.922533569335937500e+02 -3.227999877929687500e+02 -2.692675781250000000e+02
8.679074096679687500e+02 -9.278581237792968750e+01 -4.644989624023437500e+02
6.497109985351562500e+02 2.278526115417480469e+01 7.163391723632812500e+02
6.082474365234375000e+02 -9.383764648437500000e+01 -2.213389282226562500e+02
3.422589721679687500e+02 -2.040145263671875000e+02 8.553812866210937500e+02
9.678143920898437500e+02 -2.477476882934570312e+01 2.675086975097656250e+02
7.377622070312500000e+02 -2.965358886718750000e+02 -2.370332946777343750e+02
6.590618896484375000e+02 8.222210693359375000e+01 4.002723083496093750e+02
2.994263305664062500e+02 -2.144288940429687500e+02 8.806749267578125000e+02
5.941958007812500000e+02 -7.295524597167968750e+01 3.251837158203125000e+01
5.675544433593750000e+02 -2.980328979492187500e+02 -2.117733764648437500e+02
1.125127319335937500e+03 -2.588393554687500000e+02 9.302335205078125000e+02
6.012669067382812500e+02 -1.305567169189453125e+02 1.949960021972656250e+02
6.470882568359375000e+02 -1.962369689941406250e+02 -3.024278564453125000e+02
8.714515991210937500e+02 -2.759825744628906250e+02 -4.680531616210937500e+02
6.331454467773437500e+02 -2.026769561767578125e+02 4.201922607421875000e+01
6.076867065429687500e+02 -1.082395019531250000e+02 -1.528633422851562500e+02
6.228945922851562500e+02 -3.031936340332031250e+02 -2.927868652343750000e+02
7.882813720703125000e+02 -1.503437194824218750e+02 -2.206839599609375000e+02
8.332055053710937500e+02 -9.918919372558593750e+01 3.695814514160156250e+02
7.261964721679687500e+02 -1.352780342102050781e+01 -1.864603271484375000e+02
8.382028198242187500e+02 -2.626691894531250000e+02 -1.970565185546875000e+02
8.175822143554687500e+02 -1.110543289184570312e+02 -3.810256958007812500e+02
5.288041381835937500e+02 -1.803199615478515625e+02 5.531219482421875000e+01
8.987844848632812500e+02 -1.971856384277343750e+02 7.761235351562500000e+02
6.891935424804687500e+02 -2.412982025146484375e+02 3.643334960937500000e+01
7.876232910156250000e+02 -2.293050842285156250e+02 -4.856127929687500000e+01
8.236884765625000000e+02 -7.649755859375000000e+01 1.906152038574218750e+02
6.490768432617187500e+02 -1.171555023193359375e+02 -3.255141601562500000e+02
8.938986206054687500e+02 -1.407142486572265625e+02 3.737896728515625000e+01
5.991537475585937500e+02 -1.301245880126953125e+02 4.819690246582031250e+02
5.139395751953125000e+02 -1.169264526367187500e+02 1.569590454101562500e+02
7.796063232421875000e+02 -1.934501190185546875e+02 1.177388916015625000e+02
8.454519653320312500e+02 -4.433834075927734375e+01 -4.700285034179687500e+02
5.956588745117187500e+02 -1.748987884521484375e+02 1.085897216796875000e+02
8.745922241210937500e+02 -2.054859466552734375e+02 -6.752868652343750000e+01
8.068647460937500000e+02 -3.702210388183593750e+02 -5.791267700195312500e+02
8.166213989257812500e+02 -2.407140350341796875e+02 -7.195989990234375000e+01
7.335288085937500000e+02 -2.327617950439453125e+02 -5.870880126953125000e+01
5.890938720703125000e+02 -1.990997772216796875e+02 6.795721435546875000e+01
8.747474365234375000e+02 -8.718712615966796875e+01 7.650973320007324219e+00
8.948428344726562500e+02 -1.860519866943359375e+02 -7.219812011718750000e+01
8.566050415039062500e+02 -1.624456024169921875e+02 6.389249267578125000e+02
6.776299438476562500e+02 -9.059905242919921875e+01 -2.947852783203125000e+02
5.728059692382812500e+02 -1.676946258544921875e+02 6.652246093750000000e+02
8.499835815429687500e+02 -1.017469863891601562e+02 3.972774047851562500e+02
7.794625854492187500e+02 -8.532951354980468750e+01 5.190930786132812500e+02
8.645717163085937500e+02 -2.998410644531250000e+02 -5.314227905273437500e+02
5.490744628906250000e+02 3.470403671264648438e+00 5.125044555664062500e+02
6.689020385742187500e+02 5.003071594238281250e+01 1.445208435058593750e+02
7.112836303710937500e+02 3.525336456298828125e+01 5.435561523437500000e+02
7.584960327148437500e+02 -2.637287292480468750e+02 -4.369165039062500000e+01
4.432584838867187500e+02 -2.140403289794921875e+02 7.108102416992187500e+02
6.188604125976562500e+02 -2.688333740234375000e+02 -1.034266357421875000e+02
3.999550170898437500e+02 -1.961868133544921875e+02 8.004867553710937500e+02
8.753206176757812500e+02 -2.335971679687500000e+02 -1.530153198242187500e+02
5.899202880859375000e+02 -3.022380371093750000e+02 -3.647630004882812500e+02
6.437654418945312500e+02 -1.280807647705078125e+02 5.400502929687500000e+02
5.905495605468750000e+02 -1.973718452453613281e+01 -1.966351318359375000e+01
5.649695434570312500e+02 -4.879106140136718750e+01 1.155959472656250000e+02
6.989005126953125000e+02 -2.167928466796875000e+02 4.343322753906250000e+01
8.177892456054687500e+02 -4.402455902099609375e+01 2.025872192382812500e+02
5.765731811523437500e+02 -1.179452056884765625e+02 4.128226623535156250e+02
7.307576293945312500e+02 -6.498488616943359375e+01 -1.355659790039062500e+02
6.795260009765625000e+02 -8.237806701660156250e+01 -3.261789550781250000e+02
5.757787475585937500e+02 -8.468318939208984375e+01 3.914763488769531250e+02
7.006887817382812500e+02 -2.719804763793945312e+00 -2.189019775390625000e+01
7.495631713867187500e+02 -8.227473449707031250e+01 3.884794311523437500e+02
8.380870361328125000e+02 -2.731035461425781250e+02 -3.721100463867187500e+02
5.860148925781250000e+02 -1.702023124694824219e+01 2.107763671875000000e+01
6.310048217773437500e+02 -7.668811798095703125e+01 3.302089233398437500e+02
8.867731323242187500e+02 -1.432631225585937500e+02 7.417448730468750000e+02
9.572832641601562500e+02 -2.088627624511718750e+02 7.199406738281250000e+02
5.632987670898437500e+02 9.094339370727539062e+00 2.212207641601562500e+02
8.670676879882812500e+02 -1.405483398437500000e+02 5.429217529296875000e+01
6.170661621093750000e+02 -2.188786315917968750e+02 -3.419573974609375000e+01
7.183153076171875000e+02 -8.487560272216796875e+01 7.171647949218750000e+02
7.898179321289062500e+02 -9.064893341064453125e+01 -3.306021728515625000e+02
5.937797241210937500e+02 4.201772308349609375e+01 1.780924072265625000e+02
8.147440185546875000e+02 -2.975846862792968750e+02 -4.319857788085937500e+02
5.568576049804687500e+02 -1.940015716552734375e+02 6.630009155273437500e+02
6.278559570312500000e+02 -3.082665100097656250e+02 -3.401051025390625000e+02
7.671524047851562500e+02 -8.028905487060546875e+01 2.897944641113281250e+02
6.670481567382812500e+02 -1.320431060791015625e+02 -3.401908569335937500e+02
5.405086059570312500e+02 -1.018506622314453125e+02 7.976007080078125000e+01
3.490531616210937500e+02 -2.490490875244140625e+02 8.101569824218750000e+02
8.522072143554687500e+02 -2.627659606933593750e+02 -3.876154785156250000e+02
9.286353149414062500e+02 -2.494319610595703125e+02 -5.880475463867187500e+02
7.590411987304687500e+02 8.052922058105468750e+01 -5.852390747070312500e+02
8.421230468750000000e+02 -5.568335723876953125e+01 6.952386474609375000e+01
6.512881469726562500e+02 6.298319244384765625e+01 4.745894470214843750e+02
7.631822509765625000e+02 -1.286750335693359375e+02 6.516448974609375000e+02
4.168872070312500000e+02 7.309207153320312500e+01 7.527261962890625000e+02
8.253620605468750000e+02 -1.555828399658203125e+02 5.251642456054687500e+02
8.691709594726562500e+02 -1.361513519287109375e+02 -3.880108642578125000e+01
7.502351074218750000e+02 5.080137634277343750e+01 3.344523315429687500e+02
7.788061523437500000e+02 1.220430374145507812e+00 5.578186645507812500e+02
5.509397583007812500e+02 -1.815501594543457031e+01 1.926046142578125000e+02
7.817565307617187500e+02 -3.724707946777343750e+02 -5.766836547851562500e+02
9.437175903320312500e+02 -2.194071655273437500e+02 7.833975830078125000e+02
7.234069824218750000e+02 -3.317597961425781250e+02 -3.372205810546875000e+02
6.574774780273437500e+02 -1.189687423706054688e+02 5.762031250000000000e+02
1.043845458984375000e+03 -2.147753295898437500e+02 8.763488159179687500e+02
7.445132446289062500e+02 3.550033569335937500e-01 5.677891845703125000e+02
6.521899414062500000e+02 6.104753875732421875e+01 4.860787658691406250e+02
7.184619750976562500e+02 -1.753682861328125000e+02 1.769562988281250000e+02
6.660219116210937500e+02 -2.988310241699218750e+02 -3.217025146484375000e+02
6.373908081054687500e+02 -2.381712799072265625e+02 -8.525152587890625000e+01
8.262059326171875000e+02 -1.751410522460937500e+02 -2.413057861328125000e+02
5.763253784179687500e+02 2.245852470397949219e+01 2.863357849121093750e+02
8.147940673828125000e+02 -4.328942871093750000e+01 1.136291503906250000e+01
7.196833496093750000e+02 -1.805756683349609375e+02 1.420921936035156250e+02
8.142907714843750000e+02 -2.652509498596191406e+01 3.736129760742187500e+02
5.974727172851562500e+02 -1.677325439453125000e+02 -1.014486083984375000e+02
8.699902954101562500e+02 -1.963255615234375000e+02 -5.235369873046875000e+01
7.786694946289062500e+02 -3.570716857910156250e+02 -3.024821777343750000e+02
7.531854248046875000e+02 -7.869150543212890625e+01 5.887169799804687500e+02
8.167203979492187500e+02 -1.531588897705078125e+02 5.357261352539062500e+02
5.847963867187500000e+02 -7.827948760986328125e+01 -3.576739501953125000e+01
9.321118774414062500e+02 -4.643669891357421875e+01 2.365315856933593750e+02
5.892586059570312500e+02 -1.410603790283203125e+02 5.276995849609375000e+01
6.702922363281250000e+02 -5.803060531616210938e+00 7.638052978515625000e+02
9.861920776367187500e+02 -3.498652648925781250e+01 2.609393615722656250e+02
7.040907592773437500e+02 -3.125211486816406250e+02 -2.376361236572265625e+02
8.893561401367187500e+02 -5.463388061523437500e+01 2.518013916015625000e+02
6.400776367187500000e+02 -1.881761779785156250e+02 1.421639099121093750e+02
5.759750366210937500e+02 -1.699584808349609375e+02 1.194342651367187500e+02
8.192501831054687500e+02 -2.842817077636718750e+02 -3.288372192382812500e+02
5.292716064453125000e+02 -1.732703857421875000e+02 6.181590576171875000e+02
9.364783325195312500e+02 -1.543658142089843750e+02 -2.479827880859375000e+01
8.569882202148437500e+02 -6.727146911621093750e+01 1.852160644531250000e+02
5.880369873046875000e+02 -2.842438049316406250e+02 -1.753080444335937500e+02
7.798933715820312500e+02 -1.007084045410156250e+02 -2.927607421875000000e+02
8.463876953125000000e+02 -1.626461181640625000e+02 5.061547241210937500e+02
5.160425415039062500e+02 -1.403327484130859375e+02 1.533729248046875000e+02
4.486141357421875000e+02 8.039046478271484375e+01 7.380845947265625000e+02
1.146407592773437500e+03 -2.530116577148437500e+02 9.572866210937500000e+02
7.074393310546875000e+02 -1.260536193847656250e+02 5.833785400390625000e+02
7.832179565429687500e+02 -6.237384796142578125e+01 2.920856018066406250e+02
7.909244384765625000e+02 -3.193623962402343750e+02 -4.658673706054687500e+02
8.978754272460937500e+02 -3.128345680236816406e+01 -5.475331420898437500e+02
5.958834838867187500e+02 -8.336458587646484375e+01 -1.088586425781250000e+01
8.503170166015625000e+02 -4.744286346435546875e+01 9.162646484375000000e+01
8.933478393554687500e+02 -2.481673126220703125e+02 -4.907474975585937500e+02
5.050117797851562500e+02 -1.183762512207031250e+02 9.475897216796875000e+01
6.207305908203125000e+02 -2.936170959472656250e+02 -3.729735107421875000e+02
5.276016845703125000e+02 -1.065607833862304688e+02 7.065882568359375000e+02
5.801336059570312500e+02 1.951220512390136719e+01 2.918973083496093750e+02
6.529372558593750000e+02 1.900414085388183594e+01 6.292503051757812500e+02
7.036546020507812500e+02 -1.316207427978515625e+02 2.510299682617187500e+02
6.662334594726562500e+02 -6.086322021484375000e+01 -3.340498046875000000e+02
6.120630493164062500e+02 -3.288255004882812500e+02 -2.228027954101562500e+02
5.720607910156250000e+02 -2.003151245117187500e+02 1.371337890625000000e+00
7.114126586914062500e+02 -3.213951721191406250e+02 -2.371631469726562500e+02
5.548986206054687500e+02 -1.553770256042480469e+01 2.197457275390625000e+02
8.797817993164062500e+02 -1.640697784423828125e+02 1.143444824218750000e+01
7.325524902343750000e+02 -7.752359390258789062e+00 -1.184713134765625000e+02
8.405167236328125000e+02 -1.736618041992187500e+02 -1.320974731445312500e+02
6.917959594726562500e+02 -2.490349578857421875e+02 -9.774743652343750000e+01
1.008353210449218750e+03 -2.146320037841796875e+02 8.101723022460937500e+02
4.150880126953125000e+02 7.455622100830078125e+01 7.264534301757812500e+02
6.684659423828125000e+02 -3.396141052246093750e+02 -4.849491577148437500e+02
8.330125732421875000e+02 -1.005380096435546875e+02 -5.036108398437500000e+01
7.536811523437500000e+02 -3.461515426635742188e+00 -1.975787353515625000e+01
2.708965454101562500e+02 -2.275252990722656250e+02 8.982262573242187500e+02
8.914015502929687500e+02 -1.066403503417968750e+02 1.493751831054687500e+02
6.590558471679687500e+02 -1.695827636718750000e+02 1.657088623046875000e+02
7.113341064453125000e+02 -1.672763214111328125e+02 1.594764404296875000e+02
7.943744506835937500e+02 -1.214932708740234375e+02 1.921541442871093750e+02
7.183886718750000000e+02 -3.072095031738281250e+02 -3.959168090820312500e+02
1.122158569335937500e+03 -2.457892303466796875e+02 9.397750854492187500e+02
4.323433227539062500e+02 8.262355041503906250e+01 8.319054565429687500e+02
9.097208862304687500e+02 -1.577029266357421875e+02 5.058111572265625000e+01
5.794296264648437500e+02 -6.092072296142578125e+01 1.120269775390625000e+01
5.886602783203125000e+02 -2.921543884277343750e+01 5.928349609375000000e+02
7.218863525390625000e+02 3.955706024169921875e+01 1.482619628906250000e+02
5.397224731445312500e+02 -2.531308898925781250e+02 -3.082659301757812500e+02
8.621824340820312500e+02 -2.449904632568359375e+02 -1.869642944335937500e+02
8.705385131835937500e+02 -1.462485351562500000e+02 -6.605334472656250000e+01
2.427793121337890625e+02 -2.286092376708984375e+02 9.340759277343750000e+02
7.320658569335937500e+02 -5.423390960693359375e+01 -9.599090576171875000e+01
8.855625610351562500e+02 -5.913579559326171875e+01 1.621632080078125000e+02
8.289294433593750000e+02 -1.057016143798828125e+02 -1.128385925292968750e+01
5.471030883789062500e+02 -3.646651458740234375e+01 1.874322509765625000e+02
5.820156860351562500e+02 -1.096581268310546875e+02 1.099324340820312500e+02
7.102723999023437500e+02 -1.233832931518554688e+02 4.919337768554687500e+02
4.817509765625000000e+02 -1.759028778076171875e+02 5.561016845703125000e+01
3.947508544921875000e+02 -1.899576263427734375e+02 8.152356567382812500e+02
1.062213867187500000e+03 -2.493570098876953125e+02 9.064782714843750000e+02
7.581236572265625000e+02 -6.814492034912109375e+01 -2.274309082031250000e+02
5.492363891601562500e+02 -5.008832931518554688e+00 2.433894653320312500e+02
1.001483947753906250e+03 -2.085068206787109375e+02 7.898633422851562500e+02
8.638652954101562500e+02 -2.739146118164062500e+02 -3.652640991210937500e+02
8.276195678710937500e+02 -1.462555084228515625e+02 -1.177761840820312500e+02
6.973556518554687500e+02 -1.269536437988281250e+02 4.621292724609375000e+02
8.252597045898437500e+02 -1.756110839843750000e+02 -4.220050048828125000e+01
8.403566284179687500e+02 -9.940457153320312500e+01 2.190612487792968750e+02
5.644335937500000000e+02 -1.231243667602539062e+02 8.972729492187500000e+01
8.082951049804687500e+02 -2.699826660156250000e+02 -1.537830810546875000e+02
8.189133300781250000e+02 -1.695408020019531250e+02 7.531811523437500000e+01
7.407598876953125000e+02 -2.323224334716796875e+02 8.800476074218750000e+00
8.047517700195312500e+02 -9.149992370605468750e+01 3.353307800292968750e+02
5.537380981445312500e+02 -2.754802246093750000e+02 -2.592285156250000000e+02
5.092886352539062500e+02 -1.453260498046875000e+02 6.973931884765625000e+02
7.283062133789062500e+02 -3.745084762573242188e+00 2.182733154296875000e+01
5.689929199218750000e+02 -3.217125701904296875e+01 4.234411621093750000e+02
7.438606567382812500e+02 -8.230565643310546875e+01 5.541051025390625000e+02
7.878465576171875000e+02 5.038800811767578125e+01 -5.327673950195312500e+02
9.895955810546875000e+02 2.855889558792114258e+00 2.536578369140625000e+02
6.774268798828125000e+02 6.264939117431640625e+01 4.983912353515625000e+02
3.684602661132812500e+02 -2.031072845458984375e+02 8.280571289062500000e+02
5.972994384765625000e+02 -1.755583038330078125e+02 -1.702372436523437500e+02
7.608391723632812500e+02 -5.181079864501953125e+01 -1.249782104492187500e+02
8.642069702148437500e+02 -2.038641967773437500e+02 -1.706952514648437500e+02
5.619624633789062500e+02 -2.020314216613769531e+01 -5.762128295898437500e+02
7.983300170898437500e+02 -2.089841003417968750e+02 -3.073090209960937500e+02
7.076337280273437500e+02 5.810902404785156250e+01 2.115093078613281250e+02
7.761377563476562500e+02 -8.714175415039062500e+01 -1.293474121093750000e+02
9.214192504882812500e+02 -1.646943054199218750e+02 3.421636962890625000e+01
7.278369750976562500e+02 -4.103813934326171875e+01 -7.894610595703125000e+01
6.560076293945312500e+02 -3.108644104003906250e+02 -1.710139770507812500e+02
4.968434448242187500e+02 -1.756175994873046875e+02 2.330725097656250000e+01
8.689271850585937500e+02 -8.342779541015625000e+01 3.149884033203125000e+01
9.199225463867187500e+02 -1.135181808471679688e+02 -5.092854614257812500e+02
9.183679809570312500e+02 -2.226097259521484375e+02 -5.412274780273437500e+02
7.969772949218750000e+02 -2.169324798583984375e+02 -3.662097167968750000e+01
6.851743774414062500e+02 -5.356626892089843750e+01 -3.657815551757812500e+02
4.359201049804687500e+02 9.116212463378906250e+01 6.894652709960937500e+02
7.893019409179687500e+02 -2.927688598632812500e+02 -1.658338623046875000e+02
8.214385986328125000e+02 -5.556980895996093750e+01 1.010692138671875000e+02
8.615204467773437500e+02 -2.381341934204101562e+00 -5.204402465820312500e+02
8.053704833984375000e+02 -1.399322357177734375e+02 5.776145629882812500e+02
6.450509643554687500e+02 -1.680550231933593750e+02 -2.695935058593750000e+02
8.500576171875000000e+02 -2.872642517089843750e+02 -3.219437255859375000e+02
3.036100463867187500e+02 -2.328129119873046875e+02 8.682620849609375000e+02
7.281151123046875000e+02 -3.322040710449218750e+02 -3.475385742187500000e+02
6.190756225585937500e+02 -1.273147125244140625e+02 2.622960205078125000e+02
6.573855590820312500e+02 -1.465353546142578125e+02 -2.973243408203125000e+02
6.734935913085937500e+02 -2.814312744140625000e+02 -1.561456298828125000e+02
7.795470581054687500e+02 -9.073421478271484375e+01 -1.364254760742187500e+02
5.657745971679687500e+02 -1.509906158447265625e+02 6.912006835937500000e+02
5.462729492187500000e+02 -6.275759124755859375e+01 1.523405151367187500e+02
