//X,Y,Z,Normal change rate (0.011267)
-0.04655910,0.09379010,0.04361030,0.005673
-0.04149140,0.09424160,0.04252680,0.009989
-0.03777230,0.09333270,0.04348890,0.009848
-0.03328640,0.09457660,0.04438680,0.004302
-0.02638070,0.09431800,0.04505680,0.038245
-0.01416060,0.09296180,0.05538980,0.017573
-0.00319641,0.09308980,0.05578530,0.014762
0.00150357,0.09318790,0.05515440,0.007014
0.00367616,0.09507520,0.05352950,0.010569
0.00915739,0.09417940,0.05192120,0.011638
0.02165530,0.09377940,0.04732020,0.001624
-0.07029680,0.17448100,-0.04588800,0.142082
-0.03058890,0.16889900,-0.00702359,0.200728
-0.05281910,0.16264901,0.00296711,0.094991
-0.08909680,0.09401040,0.02080240,0.008653
-0.06262490,0.17311200,-0.05861310,0.150722
-0.04438350,0.10592300,-0.02019030,0.001273
-0.06649580,0.09517760,0.04245310,0.005238
-0.03243840,0.12641500,0.01467520,0.009751
-0.01524690,0.09616570,0.05180980,0.010292
-0.00975370,0.09605060,0.05358180,0.026042
-0.00304601,0.09633670,0.05377910,0.020605
0.01642000,0.09570810,0.04803810,0.006161
-0.08765480,0.10519100,0.01482530,0.050388
-0.06994170,0.07632320,0.03814960,0.004359
0.03580780,0.09585940,-0.01203280,0.003684
0.03749660,0.10015400,0.03124900,0.004103
-0.05301950,0.15005900,0.02073230,0.025896
-0.09059110,0.13176499,0.03286670,0.001182
-0.07097170,0.14730901,-0.02683890,0.096584
-0.04433210,0.09350750,-0.02226680,0.002390
-0.04009110,0.12861800,0.00909496,0.015454
-0.07100540,0.10027500,0.03981280,0.016297
-0.06530630,0.10012400,0.04172620,0.006315
-0.05899690,0.09804950,0.04303280,0.004228
-0.05299380,0.09806310,0.04329520,0.002573
-0.04699510,0.09806590,0.04323500,0.007194
-0.04084760,0.10040100,0.04146680,0.012562
-0.03233440,0.09880710,0.04352160,0.007216
-0.02594640,0.09984250,0.04389470,0.012565
-0.02120660,0.09998490,0.04441940,0.018184
0.00749586,0.09835000,0.04882550,0.012427
0.00902710,0.10110900,0.04699750,0.008566
0.01530760,0.10000800,0.04724490,0.004792
0.02081750,0.10006700,0.04538660,0.004886
-0.06483260,0.13150901,-0.00838673,0.005049
-0.07402970,0.15083200,-0.03233670,0.070713
-0.09324440,0.12488500,0.02684100,0.007111
-0.06332390,0.16909300,-0.06103580,0.103249
-0.07711580,0.16248800,-0.02026790,0.135467
-0.05856690,0.06475550,0.03236110,0.012760
0.03776890,0.11038300,0.00969065,0.001862
-0.05035590,0.09358920,-0.02189560,0.002508
-0.05899610,0.10154300,0.04243700,0.003388
-0.05166470,0.10198100,0.04174880,0.002948
-0.04692480,0.10132500,0.04211660,0.003858
-0.03521730,0.10196500,0.04136380,0.004041
0.00285015,0.10093500,0.04644330,0.008870
-0.07547900,0.15031201,-0.01438080,0.029890
-0.07893600,0.10812600,-0.00525459,0.012992
-0.02514720,0.16898100,-0.01871560,0.136785
-0.07145700,0.11369200,0.04999830,0.044230
-0.07477710,0.09975360,0.03778680,0.027668
-0.09029190,0.13721199,0.01462860,0.013610
-0.02645680,0.10588300,0.04117650,0.002794
-0.02099660,0.10440000,0.04295890,0.002976
-0.01452080,0.10559700,0.04305110,0.000928
-0.00899316,0.10622000,0.04355410,0.017171
-0.00289533,0.10588200,0.04388610,0.020336
0.00245231,0.10562100,0.04298680,0.012846
0.00945613,0.10490300,0.04390020,0.007759
0.01499130,0.10476900,0.04433480,0.004423
-0.07721860,0.10613900,0.03506010,0.099180
-0.07086010,0.10694500,0.03815980,0.121409
-0.06529850,0.10657700,0.03908050,0.112289
-0.05838960,0.10562300,0.04053260,0.006158
-0.05293410,0.10644500,0.03984350,0.004208
-0.04616380,0.10579700,0.04048430,0.003033
-0.04002040,0.10678900,0.03889930,0.003601
-0.03311000,0.10632200,0.03944610,0.003357
0.01930260,0.10477000,0.04319640,0.005720
-0.05014120,0.13774000,0.00286739,0.063491
0.02661040,0.10591100,0.03840520,0.003156
0.04387190,0.08843900,-0.00310270,0.004336
-0.05903810,0.11320300,0.03622990,0.056389
-0.02149900,0.10785100,0.04141620,0.004173
-0.01649510,0.10788100,0.04202890,0.002085
0.00450524,0.10791800,0.04193360,0.007199
0.00856234,0.10822900,0.04105310,0.008122
0.01499940,0.10779000,0.04128450,0.004483
0.02130490,0.10604100,0.04094330,0.003178
-0.03366650,0.16784300,-0.00338268,0.173343
-0.05877890,0.13170500,-0.00671001,0.019452
-0.04435170,0.10030600,-0.02152810,0.001734
-0.01473060,0.17960399,-0.02662220,0.096551
0.01595820,0.10817700,-0.01778220,0.003806
-0.06384470,0.13811900,-0.00733006,0.079155
-0.03309530,0.16786100,-0.01555390,0.141377
-0.06436840,0.12535900,-0.00876153,0.014123
-0.03258300,0.16199200,-0.01424180,0.127562
-0.06856800,0.11039200,0.03921940,0.107764
-0.06434940,0.11219500,0.03889070,0.089719
-0.05937220,0.11208200,0.03738750,0.079459
-0.05299860,0.11047200,0.03735510,0.029597
-0.04686130,0.11028000,0.03788620,0.006739
-0.04098400,0.11049600,0.03708830,0.005184
-0.03200550,0.11046800,0.03704380,0.004597
-0.00748710,0.11071700,0.04264900,0.004469
-0.00449218,0.11071400,0.04265820,0.004856
0.02500330,0.11061100,0.03684590,0.005380
0.02591900,0.09952860,-0.01892060,0.003178
-0.06973000,0.11215300,0.04571840,0.035441
-0.04560400,0.14883400,-0.00329924,0.065224
-0.06530060,0.09478890,-0.01776570,0.000710
-0.09066770,0.13318001,0.02778480,0.006208
-0.03315080,0.09447400,-0.02377990,0.033804
-0.05757640,0.09416130,-0.02080230,0.002221
-0.02005860,0.03971980,0.05322370,0.085090
-0.02036850,0.03528880,0.05118400,0.088240
-0.07641630,0.12594700,-0.00745144,0.004298
-0.02059060,0.16755100,-0.01396770,0.096419
0.02585800,0.11685100,0.03152890,0.009810
-0.01392790,0.16719100,-0.02104400,0.070699
-0.05874810,0.14980200,-0.00133886,0.103569
0.01441910,0.03952470,0.04433960,0.038344
0.03329530,0.10547300,0.03296270,0.003170
-0.06474610,0.11431300,-0.01152190,0.006108
-0.05208180,0.03537710,0.04493310,0.063553
-0.01500400,0.03920950,0.05135480,0.075151
-0.00949250,0.03849620,0.04955400,0.040152
-0.06384960,0.11763100,0.04544770,0.030106
-0.05730250,0.13686401,0.03316200,0.015176
0.01891010,0.04009420,0.04285020,0.029164
-0.05081920,0.12439300,0.03326350,0.008105
-0.01826230,0.18088500,-0.01774300,0.109701
-0.06512710,0.15034300,-0.03257070,0.142402
0.03329660,0.09368860,0.04002160,0.005179
-0.04630110,0.14949299,0.00833001,0.079853
0.00260773,0.03548870,0.04500130,0.058133
-0.07808070,0.10971000,0.04235350,0.018529
-0.05422620,0.12475600,0.03698580,0.013341
-0.04025840,0.03614470,0.04366250,0.192784
-0.00317483,0.09428740,-0.03310490,0.010148
-0.01510320,0.17971601,-0.02076210,0.086210
0.02614100,0.04032460,0.03272650,0.022497
-0.06402470,0.11137600,-0.01362720,0.004762
0.02781700,0.11230900,0.03391180,0.005727
-0.05863320,0.14277400,0.03349530,0.010224
-0.01466220,0.16750100,-0.01544550,0.080706
-0.02708930,0.16729800,-0.00866399,0.196185
0.01520560,0.04581300,0.04426380,0.009551
0.01909880,0.04429960,0.04290000,0.016652
0.02156940,0.04561120,0.04120900,0.013527
0.02574520,0.04591370,0.03811850,0.007893
0.03873650,0.09444470,0.03270880,0.002991
0.02873080,0.04567220,0.03474660,0.021973
-0.01518050,0.17380901,-0.02133050,0.098209
-0.06589030,0.11825300,0.04981260,0.039242
-0.06283450,0.09320600,-0.01885440,0.001127
-0.06430650,0.14245100,0.03941230,0.019106
-0.04007900,0.15028299,0.00280951,0.087689
-0.02685100,0.17326801,-0.00983852,0.189703
-0.02079130,0.17376700,-0.01478260,0.148978
-0.05823340,0.12423800,0.04034060,0.015294
-0.06833370,0.13154501,0.04797090,0.011204
-0.06935470,0.10637000,-0.01280300,0.000955
-0.04286680,0.15762700,0.00504190,0.026956
-0.04764490,0.13036799,0.02588340,0.026927
0.03794510,0.08171670,-0.01415470,0.005115
0.03122980,0.04702860,0.03244650,0.018677
-0.06622840,0.13814899,0.04289600,0.008496
-0.06440940,0.10557500,-0.01586340,0.002173
0.04112710,0.04437130,0.02854740,0.015418
-0.08300310,0.07623610,0.01502960,0.003333
-0.06601670,0.12348800,0.05016430,0.031925
-0.04163520,0.15532900,0.00636435,0.028817
-0.03884560,0.15599400,0.00477206,0.064432
-0.05517320,0.11653800,0.03591950,0.052003
-0.06000690,0.13408200,0.03694340,0.007432
0.04528160,0.04532840,0.02631240,0.011141
0.05131610,0.04631540,0.02049630,0.007613
-0.01066870,0.17284700,-0.02156270,0.081521
-0.01477350,0.18419001,-0.02593410,0.087769
0.03010640,0.10677600,0.03580910,0.005532
-0.06370900,0.12512200,0.04574510,0.016829
0.04734310,0.04992170,0.02950770,0.026766
0.04971060,0.04820660,0.02595060,0.011224
0.05184840,0.05184150,0.02671610,0.012923
-0.01627320,0.17293800,-0.01745820,0.092733
0.03550970,0.10730400,0.02911510,0.003561
-0.05526560,0.14307700,0.03005370,0.019431
-0.06371910,0.13648200,0.03881760,0.012321
-0.01990860,0.16107200,-0.00863325,0.116269
-0.02091720,0.17928199,-0.01485230,0.125614
0.01451100,0.05135190,0.04742710,0.004399
-0.06102590,0.12691200,0.04161330,0.022018
0.05399050,0.04941410,0.02191140,0.010250
0.00925922,0.11886500,-0.01486740,0.005841
-0.02683840,0.16209100,-0.00836699,0.175900
-0.03670240,0.16319799,-0.00107067,0.083139
-0.03364320,0.15594800,0.00188963,0.082627
-0.02809660,0.15958700,0.00048307,0.105172
-0.02649100,0.16163000,-0.00321758,0.181896
0.02066130,0.05287330,0.04516550,0.003412
0.02315760,0.05130690,0.04147530,0.003721
0.02660440,0.05265160,0.03985300,0.002266
0.03097720,0.05278230,0.03713480,0.009602
0.02393710,0.10342400,0.04181060,0.004646
0.05688950,0.05274840,0.02092040,0.013790
-0.06642090,0.11329000,0.04413310,0.025146
-0.03267890,0.16238400,-0.00243762,0.127833
0.01451990,0.09325860,-0.02636300,0.014635
-0.05439830,0.11918600,0.03657810,0.034185
-0.05642720,0.13237600,0.03579660,0.004638
-0.05016360,0.14291100,0.00230897,0.098516
-0.04371400,0.14770700,0.00385010,0.123889
-0.02913460,0.17717101,-0.00534178,0.148414
0.03573040,0.10036300,-0.01116040,0.006301
0.01339430,0.05415360,0.04995210,0.003802
0.05510890,0.05450070,0.02539610,0.021670
0.02910330,0.05728860,0.04070890,0.004015
0.05857230,0.05834020,0.02148930,0.014126
-0.07403220,0.06569520,0.01448750,0.001939
-0.07498440,0.17930500,-0.05182210,0.152913
0.01457780,0.05857690,0.05016910,0.001950
0.02148760,0.05833200,0.04705490,0.004184
0.02595070,0.05900040,0.04377620,0.005049
0.03283300,0.05856330,0.03871580,0.004712
0.03582180,0.05783740,0.03503650,0.030166
0.03605850,0.09513010,0.03649020,0.005711
-0.08868060,0.11828300,0.04591420,0.021648
0.05627360,0.05863650,0.02533980,0.032369
0.03033110,0.09512950,0.04195890,0.004229
-0.02223150,0.16738901,-0.01104720,0.114251
-0.05432570,0.13657700,0.03079590,0.016622
-0.05000740,0.15044700,0.01175790,0.105751
-0.06162890,0.13740601,0.03547440,0.013939
-0.03193670,0.15950701,0.00191749,0.053174
-0.06344580,0.13214800,0.04068670,0.006759
0.03686780,0.09219890,0.03674490,0.004562
-0.07284330,0.15613700,-0.03391120,0.139025
0.03898720,0.06406890,0.03302990,0.033472
-0.06366110,0.14880000,-0.02059960,0.118695
0.01539380,0.06484440,0.05130360,0.001135
0.02139580,0.06455060,0.04730780,0.002676
0.02651050,0.06492350,0.04397210,0.001422
0.03023640,0.06506570,0.04159750,0.002249
0.03312950,0.06422210,0.03973810,0.003773
0.03678850,0.06502700,0.03668670,0.005729
0.05631310,0.06507820,0.02522080,0.032423
0.05913640,0.06447420,0.02113570,0.030487
-0.01106830,0.16709800,-0.01678070,0.087742
-0.06052020,0.14620499,0.03666660,0.020499
0.01945280,0.06657360,0.04916420,0.003459
-0.02867770,0.15813200,0.00050882,0.146512
0.02530250,0.09895690,0.04342770,0.003830
-0.03499790,0.15215801,0.00008207,0.154512
0.01466500,0.07062700,0.05283060,0.002550
0.02029080,0.07104100,0.04988280,0.002412
0.02307020,0.07029910,0.04738350,0.002548
0.02636930,0.07062380,0.04417890,0.002230
0.03283060,0.07076060,0.04013620,0.005705
0.03688320,0.07067200,0.03659530,0.005092
0.03988780,0.07056320,0.03258080,0.013768
0.05795440,0.06947940,0.01983450,0.033034
-0.06417040,0.06372400,0.02686820,0.001339
-0.09194990,0.11421600,0.01492650,0.019880
0.03516240,0.08190760,-0.01725020,0.005412
-0.08624080,0.11927100,-0.00117534,0.011341
-0.02944010,0.17495801,-0.00579982,0.179788
-0.01752880,0.16541800,-0.01149250,0.105774
-0.06178690,0.11778900,0.04091440,0.032946
0.03018910,0.07236580,0.04188040,0.002107
-0.08220990,0.14948601,0.00288044,0.035165
-0.07602710,0.17570400,-0.05069370,0.096003
-0.06523430,0.06147380,0.02113460,0.004471
-0.02665740,0.11039400,-0.01900700,0.005312
-0.08135380,0.07791610,0.02680550,0.004003
0.02141700,0.11872300,-0.00893569,0.002595
0.01493460,0.07592970,0.05361910,0.001777
0.02098860,0.07616090,0.05060550,0.005999
0.02683960,0.07620890,0.04591930,0.002381
0.03367850,0.07607370,0.04051660,0.004951
0.03734220,0.07603060,0.03667760,0.004023
0.04003240,0.07630620,0.03283450,0.001977
0.04190480,0.07687600,0.02960920,0.003923
0.04380940,0.07638050,0.02586380,0.049041
-0.04524120,0.11847200,-0.01420460,0.002137
0.04567730,0.07680890,0.02081870,0.060839
-0.05016500,0.13771400,0.02076180,0.004569
-0.00327054,0.11156300,-0.02035490,0.008461
-0.04832360,0.14511099,0.00757835,0.109775
0.03108330,0.07753150,0.04322820,0.003714
-0.04685500,0.14522199,0.00288431,0.142067
-0.01417160,0.10541000,-0.02258020,0.005605
0.04703480,0.07539790,0.01487360,0.062844
-0.06114330,0.14054200,0.03561840,0.008479
0.02727790,0.08237140,0.04592430,0.004863
0.03092120,0.08255000,0.04302520,0.003430
0.03430370,0.08254120,0.04029070,0.004170
0.03703540,0.08246630,0.03690990,0.002534
-0.07999460,0.14798900,-0.00083534,0.015057
-0.07744350,0.06901530,0.00961977,0.004346
0.04043630,0.08269950,0.03260210,0.001615
0.04174790,0.08273350,0.03025240,0.002916
0.04368870,0.08255080,0.02638440,0.001369
0.04544070,0.08254650,0.02071370,0.003832
-0.08228120,0.11629500,0.04828550,0.023411
-0.08447260,0.09473910,-0.00345192,0.004049
-0.02027100,0.16800299,-0.01939350,0.081737
-0.07427160,0.06685010,0.01904140,0.003932
0.02674700,0.08824170,0.04583140,0.002627
0.03087220,0.08825720,0.04301460,0.002565
0.03449220,0.08830470,0.04036970,0.004856
0.03724810,0.08812630,0.03663930,0.004144
0.03992700,0.08809400,0.03266680,0.002056
0.04190270,0.08777820,0.02908150,0.002979
0.00264738,0.11230200,-0.01987100,0.007639
-0.07033150,0.14550000,-0.02055760,0.086539
-0.07494460,0.13787900,-0.00653312,0.063033
-0.02669670,0.11429900,-0.01599030,0.004422
-0.08699240,0.11351800,0.00410409,0.021187
-0.01421860,0.17401300,-0.02598070,0.070403
-0.02215640,0.15785199,-0.00861651,0.137655
-0.01158700,0.16412900,-0.01630450,0.095905
-0.00997381,0.16933800,-0.02477650,0.048115
-0.08287500,0.14340501,0.00186692,0.006422
0.02037570,0.03544050,-0.00287175,0.042932
0.01912740,0.03633370,-0.00917714,0.044247
0.01844560,0.03638800,-0.01347900,0.051465
0.01495350,0.03477320,-0.01549370,0.061601
0.02212040,0.03720260,0.03423240,0.039736
0.03927100,0.03828660,0.00854708,0.003462
0.03975490,0.03985450,0.00261400,0.009821
0.02218920,0.03806140,-0.00446361,0.041264
0.01799010,0.03690660,-0.01618350,0.058449
0.01541480,0.03924440,-0.02128610,0.029578
0.02080230,0.10011800,-0.02133920,0.002020
0.04460040,0.04090640,0.00927401,0.004845
0.04356250,0.04113550,0.00427044,0.010509
0.03813810,0.04111390,-0.00147908,0.014647
-0.04788070,0.13520700,0.00885778,0.038257
0.02172740,0.04042870,-0.00964433,0.010751
0.02067440,0.04059560,-0.01444370,0.006771
0.01925780,0.04116810,-0.01950740,0.021921
-0.08857360,0.11291300,0.03958560,0.026277
-0.02679300,0.10645700,-0.02185010,0.005070
0.04814870,0.04285850,0.01455940,0.002060
0.05212120,0.04616550,0.00896550,0.004236
0.04804380,0.04306470,0.00724585,0.004259
0.04609360,0.04341310,0.00284357,0.008276
0.02850030,0.10048500,-0.01681030,0.004739
0.02694620,0.03958330,-0.00334578,0.021433
-0.09078560,0.11783800,0.00647331,0.014701
-0.06272100,0.16756700,-0.04706280,0.186693
-0.07995320,0.10681300,0.03168380,0.081390
0.05274370,0.04621250,0.01395540,0.005459
0.05045330,0.04662630,0.00264513,0.009535
-0.03225810,0.11732400,-0.01332730,0.004826
0.02724750,0.04559660,-0.00927071,0.019428
-0.01464550,0.09420840,-0.03373410,0.011329
-0.04115450,0.16722000,-0.01081800,0.105254
-0.07213850,0.15611200,-0.03841020,0.144513
0.04568030,0.04742170,-0.00311192,0.020312
0.02394070,0.04332540,-0.00969837,0.014625
0.02108400,0.04625850,-0.02053030,0.010456
-0.03485270,0.03515490,-0.03073510,0.126454
-0.06998670,0.06630660,0.02591530,0.002932
-0.07470710,0.14989100,-0.02014530,0.096560
-0.08454480,0.13725001,0.00074318,0.007120
0.05495140,0.04841780,0.01639820,0.011278
0.02645650,0.04662610,-0.01410390,0.008815
0.02252760,0.04446550,-0.01576830,0.010823
0.03305380,0.09381350,-0.01605380,0.003311
0.05264760,0.06949920,0.00297306,0.044903
0.05285440,0.05813390,-0.00277966,0.024970
-0.05714640,0.06717990,0.03617050,0.012976
-0.06515440,0.15716700,-0.05154910,0.156196
-0.04931890,0.13368200,0.00119868,0.054528
-0.03296200,0.10595000,-0.02067290,0.004264
-0.06495380,0.15565600,-0.04563100,0.128908
-0.03904560,0.15044500,-0.00354536,0.081740
0.05743650,0.05161800,0.01451830,0.009448
0.05741290,0.05225310,0.00903377,0.006326
0.05361120,0.05009650,0.00204174,0.011675
0.05122040,0.05201210,-0.00218354,0.017880
0.04712260,0.05158110,-0.00481298,0.038179
0.03344300,0.04757600,-0.00638170,0.025690
0.00280933,0.11829700,-0.01582080,0.003873
-0.01478410,0.10125000,-0.02384080,0.011127
-0.06200370,0.16742200,-0.05271650,0.142450
0.05591470,0.05283820,0.00339683,0.016247
0.03348010,0.05185060,-0.00825293,0.034179
0.02878140,0.05011710,-0.01579260,0.011539
0.02561970,0.04855420,-0.01905480,0.013511
-0.00863537,0.11840600,-0.01461140,0.002865
-0.01483220,0.11767500,-0.01470100,0.003450
-0.06151380,0.14571200,-0.00481276,0.141451
0.02325310,0.12083000,-0.00456186,0.003217
-0.04015350,0.03427180,-0.02751490,0.170447
0.03026570,0.04968680,-0.01072890,0.019179
0.03200660,0.11133400,-0.00737407,0.008054
-0.02110030,0.12041700,-0.01024820,0.004156
-0.02049910,0.11712500,-0.01408030,0.003210
-0.00910263,0.03836020,-0.02577600,0.108433
-0.05251440,0.11229000,-0.01710340,0.002471
0.02023530,0.12371300,-0.00247094,0.002539
-0.07017490,0.03475410,-0.00178910,0.086225
-0.00340266,0.11484400,-0.01769280,0.010157
0.03102480,0.05371300,-0.01405220,0.007717
0.02681910,0.05284820,-0.02033900,0.008344
-0.01474580,0.12067300,-0.01058530,0.005531
0.02709050,0.10621400,-0.01467560,0.002611
0.04655410,0.06979910,0.00228503,0.069303
-0.00300122,0.10067600,-0.02358140,0.014745
-0.07558740,0.07621200,0.03346800,0.006590
0.05973800,0.05729980,0.01517360,0.008474
0.05953940,0.05787170,0.00861672,0.007039
0.05720910,0.05805260,0.00253507,0.013687
-0.01429070,0.12314700,-0.00746744,0.004684
0.02118310,0.11230300,-0.01408340,0.004309
0.03474550,0.05650460,-0.01071400,0.013690
0.02491380,0.08251630,-0.02458770,0.001800
-0.03822270,0.11452100,-0.01617800,0.006427
-0.08194850,0.07616720,0.02083220,0.001876
-0.02695570,0.03922510,-0.02939430,0.159008
0.03770370,0.05934010,-0.00852013,0.043340
0.03302950,0.05863060,-0.01472900,0.003364
0.02181210,0.05158650,-0.02364920,0.009307
-0.02049530,0.09359080,-0.03316750,0.012971
-0.08722170,0.11352100,0.04406660,0.029511
-0.02715370,0.03516080,0.05092670,0.065237
-0.05038250,0.10630200,-0.01945980,0.002413
0.02666110,0.05850670,-0.02191340,0.004315
0.00975018,0.09459320,-0.02804510,0.013505
-0.02055240,0.12239100,-0.00754739,0.001990
-0.06680210,0.09091910,-0.01747440,0.001125
-0.08561550,0.09420990,-0.00109094,0.005865
-0.09152740,0.11444000,0.02044920,0.014691
-0.09090480,0.13170099,0.00809159,0.005168
0.04048510,0.05788860,-0.00516980,0.035018
0.02959640,0.05804730,-0.01782740,0.009018
0.02669860,0.09413590,-0.02059490,0.002366
-0.06771040,0.17286900,-0.05726020,0.136168
0.01420010,0.11804300,-0.01391700,0.006117
-0.06981710,0.06996870,0.03263750,0.004494
0.06070970,0.06488020,0.01516320,0.017575
0.06093460,0.06305050,0.01315850,0.019458
0.06022050,0.06437180,0.00864139,0.030976
0.05740550,0.06388770,0.00271573,0.027010
-0.07977930,0.10385800,-0.00660016,0.004974
-0.05638670,0.13735899,-0.00421998,0.012345
0.03445120,0.06382630,-0.01520120,0.004089
0.03071390,0.06053170,-0.01845890,0.004591
0.01856840,0.12178900,-0.00725624,0.002965
-0.04566170,0.11241400,-0.01696580,0.001546
0.04561770,0.06448450,-0.00162168,0.039299
-0.05842680,0.03490150,0.04412020,0.136021
-0.07479820,0.07236740,0.03085140,0.006729
-0.06993730,0.06218540,0.01517780,0.004079
-0.05288900,0.13651900,-0.00170821,0.025974
0.04102050,0.06448860,-0.00476733,0.059141
0.03887120,0.06461660,-0.00976797,0.023292
0.05148710,0.06372790,-0.00174794,0.021866
-0.07872970,0.07445510,0.02674210,0.003271
-0.08502810,0.14426900,0.00618082,0.007956
0.03130940,0.06448700,-0.01889360,0.002145
0.02672740,0.06461710,-0.02208420,0.001721
0.03187370,0.08774390,-0.01927050,0.003737
-0.07724550,0.14399500,-0.00470939,0.040534
0.01325760,0.11044300,-0.01835410,0.002671
-0.00289343,0.12472300,-0.00863032,0.002595
-0.03428680,0.03858200,0.04854610,0.096273
0.02003970,0.08762330,-0.02612050,0.005459
0.05854530,0.07053540,0.01469760,0.025804
0.05814050,0.06998190,0.00856199,0.035063
0.05609900,0.06943600,0.00424359,0.033310
0.03704790,0.06651860,-0.01326370,0.004956
-0.06256100,0.17297100,-0.06167210,0.129113
-0.07027180,0.15493999,-0.04554720,0.152860
-0.09162590,0.13049901,0.00930481,0.004789
-0.07002100,0.14822900,-0.03282310,0.169534
-0.07212740,0.06801830,0.02677530,0.003514
-0.07453370,0.15067001,-0.02643030,0.083497
0.04310870,0.07134610,-0.00276400,0.007622
0.04216590,0.06925250,-0.00466106,0.037459
0.03454040,0.06993780,-0.01603910,0.002076
-0.03423680,0.12291200,-0.00708584,0.010380
0.04015180,0.07093200,-0.00951127,0.003378
0.03707060,0.07074080,-0.01330100,0.003669
0.03108560,0.07021750,-0.01929050,0.001862
0.02830040,0.07054530,-0.02224470,0.002775
-0.00859023,0.10169900,-0.02378970,0.010458
-0.03282340,0.04001390,-0.02987500,0.145148
-0.08305880,0.11047000,0.03973340,0.018577
0.01427240,0.12323700,-0.00806485,0.002879
-0.07604430,0.10863700,0.03890780,0.116148
-0.07327620,0.15493900,-0.03213920,0.123225
0.01603240,0.08892320,-0.02824770,0.005119
-0.09016770,0.13136099,0.03943740,0.008922
0.04558280,0.07683650,0.00270178,0.053404
-0.05167170,0.05539650,0.01490600,0.073556
-0.03765450,0.12100200,-0.01097240,0.006813
0.04663180,0.07628850,0.00910629,0.062740
0.04373030,0.07692410,-0.00295564,0.003298
0.04050430,0.07667840,-0.00849130,0.004031
0.03694630,0.07628360,-0.01288370,0.003410
0.03493510,0.07666480,-0.01559440,0.003943
0.03192370,0.07639040,-0.01941860,0.003853
0.02852080,0.07580750,-0.02252330,0.003896
-0.06468570,0.06880900,0.03482190,0.005402
-0.00335573,0.09861360,-0.02692830,0.013542
-0.03836060,0.10011200,-0.02176610,0.001334
-0.07054330,0.14989699,-0.03873190,0.140761
-0.02478710,0.17921500,-0.01883560,0.118755
0.00339058,0.09370230,-0.03183650,0.012850
-0.09099000,0.14268900,0.02266450,0.011811
-0.08510880,0.10211500,0.00039112,0.006475
0.00299202,0.12470700,-0.00864775,0.003314
-0.06494590,0.16733600,-0.03299440,0.097908
0.04597500,0.08272430,0.01467160,0.017479
0.04619310,0.08273760,0.00867911,0.019161
0.04534610,0.08266020,0.00269811,0.001439
0.03259400,0.08223100,-0.01905970,0.005648
-0.07077520,0.14201100,-0.00901143,0.133872
-0.03966940,0.04523900,-0.02103510,0.010046
-0.07364880,0.14578700,-0.01310480,0.101500
-0.06618550,0.17790000,-0.05290180,0.151144
-0.06980060,0.17922699,-0.05172850,0.148080
-0.07196770,0.17784800,-0.04746040,0.112203
-0.01318170,0.09742470,0.05098080,0.009182
-0.07605290,0.17765100,-0.04714570,0.143371
-0.08752740,0.14945100,0.00937476,0.025639
-0.08475040,0.14953600,0.00652369,0.032961
-0.08538430,0.09804120,-0.00055420,0.004099
-0.07016200,0.17294499,-0.03931320,0.157535
-0.06690530,0.17136000,-0.04041870,0.126125
-0.09157650,0.11464400,0.01083490,0.018545
0.03111750,0.11634500,-0.00142056,0.005270
-0.09039000,0.14407399,0.01425550,0.018101
0.05337520,0.07241730,0.00805773,0.033985
0.03481150,0.11363600,0.00289967,0.003194
0.03210470,0.11712800,0.00373672,0.003145
-0.05585540,0.16012999,0.00226313,0.079202
0.02841270,0.12005000,0.00266093,0.003383
-0.06934170,0.15152600,-0.04432550,0.141113
0.05091430,0.07333960,0.01121310,0.067976
0.04852860,0.07263580,0.00856732,0.085148
0.02514710,0.12251700,0.00254898,0.002176
-0.06841680,0.17015700,-0.03195310,0.154013
-0.07102800,0.17127401,-0.03258860,0.172039
-0.07656340,0.15575700,-0.00874762,0.149880
0.05252060,0.07346780,0.01488760,0.026205
0.03552100,0.11345400,0.00908801,0.001298
0.02083240,0.12562700,0.00327965,0.001986
-0.04767220,0.13434801,0.01944340,0.010658
-0.07460830,0.17122900,-0.03265160,0.185382
0.03220270,0.11761600,0.00936420,0.002169
0.01625230,0.12758800,0.00132734,0.005139
-0.09146690,0.14280500,0.01672230,0.018212
0.02907750,0.12047400,0.00686894,0.002710
0.01359090,0.12914000,0.00336546,0.005792
-0.08616350,0.10045800,0.02571900,0.009778
-0.06530510,0.16594499,-0.02698490,0.054804
-0.06984920,0.16889000,-0.02686480,0.132380
-0.07827000,0.16747300,-0.03249600,0.139712
0.02155570,0.09452340,-0.02265940,0.002324
0.02606120,0.12308200,0.00873766,0.001487
0.00920342,0.13008100,0.00248247,0.004429
-0.07099340,0.17051700,-0.02952480,0.144163
-0.07602020,0.16793799,-0.02726360,0.138459
0.05252290,0.07166540,0.02112030,0.034609
0.02071670,0.12656599,0.00922145,0.001392
-0.07460250,0.09980330,-0.01264560,0.003256
-0.08643330,0.08908740,0.02570550,0.007956
0.03549410,0.11343500,0.01508480,0.001382
0.03207370,0.11769800,0.01462620,0.001384
0.00294754,0.13071400,0.00292443,0.003401
-0.02563910,0.08239570,0.05194890,0.011404
-0.06662580,0.16541600,-0.02216310,0.055234
-0.08041770,0.15309200,0.00488677,0.051580
-0.06456230,0.03500170,0.01518920,0.121774
-0.06279360,0.03524790,0.02012000,0.189771
-0.06429320,0.03493810,0.02646040,0.108087
-0.06424210,0.03974970,0.02676590,0.122296
-0.06524190,0.03522020,0.03243570,0.108177
-0.06432000,0.03522610,0.03879140,0.129052
-0.08690140,0.09440880,0.02608690,0.006188
-0.02637600,0.10040300,-0.02375190,0.021331
-0.07043940,0.03482880,0.00888692,0.076962
-0.06963750,0.03967300,0.00918640,0.098773
-0.06780640,0.03572800,0.01336200,0.148849
-0.07784330,0.08197320,0.03546170,0.006848
-0.08093180,0.08279420,0.03250000,0.006893
-0.07123160,0.03897400,0.00275642,0.118505
-0.06161010,0.03796180,0.02193440,0.187548
-0.06537780,0.04070540,0.03234150,0.109542
-0.06129490,0.04010800,0.04387830,0.112332
-0.07488910,0.08269160,0.03811540,0.003788
-0.08416410,0.13376901,0.04865640,0.022662
-0.08491060,0.09452710,0.02904790,0.006827
-0.08299400,0.14471200,0.04040650,0.008721
-0.02654790,0.11761900,-0.01327810,0.003182
-0.06796780,0.03832210,0.01239030,0.107731
-0.06392590,0.04011460,0.01511010,0.143294
-0.05885270,0.04078020,0.02021360,0.178355
-0.08696210,0.13558900,0.04405840,0.005874
-0.03882700,0.03984840,0.04256400,0.167871
-0.02532380,0.07734370,0.05016030,0.004766
0.00864855,0.11187800,-0.01922520,0.006320
-0.06250140,0.04424000,0.03886160,0.063808
-0.08849300,0.12525800,0.04616730,0.016224
0.01507850,0.10107000,-0.02203720,0.006723
-0.08105330,0.08763250,0.03346220,0.004114
-0.06366020,0.04392210,0.03223550,0.088112
-0.08237570,0.12585001,-0.00459555,0.007337
-0.03745540,0.04287300,0.04295120,0.124771
-0.03132800,0.04328630,0.05011850,0.077777
-0.08418020,0.08750160,0.02858150,0.005947
-0.06900990,0.04272160,0.00298087,0.084110
-0.06903230,0.04271330,0.00739115,0.110815
-0.06420070,0.04491780,0.00895163,0.048316
-0.06300050,0.04274970,0.01330040,0.134947
-0.05807770,0.04440320,0.01435960,0.075668
-0.08747600,0.13071200,0.04585440,0.009248
-0.08377120,0.09993370,0.02933900,0.015424
-0.08371900,0.08228460,0.02709320,0.004548
-0.02091830,0.09347720,0.05121340,0.017995
-0.08689830,0.14265101,0.03835050,0.009669
-0.05889840,0.04676510,0.00989959,0.059971
-0.05291440,0.04644750,0.01580240,0.037177
-0.08816540,0.08820940,0.02091920,0.006608
-0.04940750,0.16590101,0.00073167,0.065902
-0.05861140,0.04739780,0.03370610,0.022039
-0.05614000,0.05174760,0.00835186,0.121450
-0.08652310,0.14807300,0.03212710,0.013878
-0.03084970,0.04932970,0.04296540,0.028761
-0.07691020,0.11499400,0.05011880,0.027640
-0.02090650,0.09595790,0.04741950,0.020984
-0.05099470,0.05096370,0.01507990,0.101538
0.00842415,0.08896570,-0.03205370,0.009522
-0.02405610,0.05443860,0.04169730,0.052013
-0.05103920,0.05242230,0.02032130,0.095177
-0.05262080,0.05182710,0.02702100,0.094374
-0.05040220,0.05911860,0.03268910,0.072062
-0.04788210,0.05906940,0.03631340,0.047247
-0.02391280,0.05865530,0.04213080,0.046620
-0.07593140,0.11922800,-0.00697007,0.009662
-0.01831810,0.06045640,0.05061820,0.010861
-0.02984410,0.09725310,-0.02357150,0.025497
-0.02419260,0.06287730,0.04229360,0.021537
-0.02239980,0.06467000,0.04597900,0.004338
-0.01928990,0.06414830,0.05039280,0.008892
-0.02601090,0.17292500,-0.01914530,0.161634
-0.02653310,0.16157401,-0.01443180,0.155056
-0.05585560,0.15572000,-0.00121016,0.112461
-0.05990280,0.13646600,-0.00644560,0.016857
-0.06353800,0.07166500,0.03794630,0.004239
-0.02004170,0.08698620,-0.03788760,0.016778
-0.05571760,0.10574500,-0.01862410,0.001802
-0.05306910,0.14391400,-0.00100898,0.098330
-0.02566880,0.07046370,0.04389350,0.027437
-0.02355770,0.06937740,0.04702030,0.001279
-0.05257590,0.12724701,-0.00521525,0.047504
-0.07878590,0.13185801,-0.00545913,0.007982
-0.05802120,0.12008800,-0.01027470,0.015047
-0.03962940,0.11044100,-0.01862580,0.003402
-0.02102820,0.17311300,-0.02149220,0.120096
-0.05475930,0.05632890,0.01071470,0.103271
-0.04355340,0.03457580,-0.02475200,0.113974
-0.04498330,0.03469210,-0.02074830,0.144708
-0.04435760,0.03904030,-0.02174910,0.173132
-0.04628550,0.03450370,-0.01531120,0.161453
-0.04661900,0.03964570,-0.01414570,0.222545
-0.00904923,0.03438260,-0.02464290,0.103439
0.00311748,0.10030300,-0.02279290,0.019832
-0.06908090,0.03922170,-0.00181724,0.083580
-0.09202890,0.13104101,0.02623490,0.001756
-0.04341400,0.03724870,-0.02530640,0.095167
0.02809740,0.08182940,-0.02209310,0.005292
-0.06770200,0.16944601,-0.05601340,0.121695
-0.09153770,0.12967400,0.03123650,0.001506
-0.06630860,0.04111620,-0.00443149,0.106098
-0.07312550,0.15193500,-0.03688790,0.102352
-0.03901450,0.03948890,-0.02759800,0.153630
-0.06373720,0.04378270,-0.00264533,0.038421
-0.06054270,0.04255650,0.02469750,0.091471
-0.08576030,0.13076299,-0.00071446,0.007345
-0.05204720,0.04035730,-0.01074110,0.108809
-0.05685220,0.04345040,0.02244130,0.139769
-0.04323900,0.04293420,-0.01931660,0.175307
-0.04387870,0.04413220,-0.01442220,0.159949
-0.04575050,0.04648600,-0.01056940,0.036477
-0.06459380,0.04568970,0.00313082,0.025564
-0.05259780,0.04648430,0.02071160,0.050973
-0.05725780,0.04594890,0.02688700,0.018205
-0.06189620,0.04436480,0.02868130,0.059178
-0.03314670,0.04531790,-0.02672820,0.033375
-0.03776690,0.04435470,-0.02520990,0.022121
-0.03209220,0.11442500,-0.01623040,0.007690
-0.05780270,0.04706690,-0.00326740,0.025514
-0.09149540,0.14799400,0.02051370,0.054143
-0.04000670,0.04715360,-0.01510420,0.124973
0.00454895,0.12186900,-0.01247970,0.005984
0.01512820,0.11270800,-0.01654960,0.004813
-0.05257870,0.04632910,-0.00775444,0.009198
-0.05992760,0.04751120,0.00267117,0.095712
-0.07264580,0.14712600,-0.02186250,0.088399
-0.07409240,0.16868600,-0.04403120,0.196062
-0.05749400,0.05154260,0.00319413,0.156054
-0.05369180,0.04830480,0.02649450,0.072199
-0.01471560,0.11445300,-0.01722550,0.005382
-0.03351910,0.04804240,-0.02124600,0.050404
0.01946100,0.09243330,-0.02443440,0.003847
0.01694020,0.09520650,-0.02382780,0.008548
0.02010470,0.10415600,-0.01881970,0.002000
-0.03196420,0.05166570,-0.01525090,0.063355
-0.03684480,0.04882560,-0.01310710,0.052873
-0.03912650,0.05189090,-0.01094670,0.038379
-0.00892221,0.11157600,-0.02027330,0.005152
-0.05156590,0.05151580,-0.00751393,0.023868
-0.05570280,0.05294000,-0.00268598,0.072866
-0.02934210,0.05263980,-0.02139910,0.042893
-0.03144530,0.04963510,-0.01935390,0.063467
0.03223810,0.10409000,-0.01284820,0.004046
-0.02610250,0.05258010,-0.02646690,0.058205
-0.05830310,0.11673300,-0.01300380,0.003451
-0.01485100,0.11159900,-0.01914840,0.002962
-0.05213480,0.11818900,-0.01374510,0.002617
-0.05174930,0.05827980,-0.00896954,0.012858
-0.05619820,0.05824620,-0.00310645,0.035970
-0.05879890,0.05861190,0.00276734,0.108722
-0.05855640,0.05784160,0.00857596,0.112721
0.01902600,0.11614000,-0.01316860,0.004999
-0.02118930,0.11166200,-0.01908830,0.002054
-0.02391760,0.05611490,-0.03005700,0.027966
-0.02726030,0.05854800,-0.02747800,0.013057
-0.02957660,0.05827990,-0.02175510,0.023637
-0.03209280,0.05893820,-0.01476180,0.040389
0.00739380,0.12178900,-0.01265550,0.006359
-0.02519460,0.05952270,-0.03086320,0.015602
-0.03071670,0.06013000,-0.01941810,0.017601
-0.06501130,0.06321740,-0.00293095,0.005471
-0.06964790,0.06575100,-0.00198101,0.003323
-0.06999260,0.06350130,0.00374106,0.005759
-0.07994350,0.07248120,0.01915140,0.003391
-0.06768440,0.16092201,-0.05599420,0.174305
-0.02154350,0.06365590,-0.03504310,0.013909
-0.02583250,0.06482520,-0.03220870,0.012000
-0.02898200,0.06364380,-0.02749970,0.008896
-0.03042260,0.06293680,-0.02242610,0.004432
-0.03190420,0.06518190,-0.02019420,0.014016
-0.03327410,0.06363370,-0.01600320,0.026690
-0.02055470,0.03411100,-0.02640100,0.072137
-0.07433670,0.06582860,0.00833126,0.002671
0.01610300,0.12074500,-0.01038430,0.005113
-0.07702120,0.07005440,0.00316631,0.004143
-0.07482190,0.06693000,0.00451345,0.005644
-0.03063170,0.06575240,-0.02545300,0.002269
-0.07114330,0.06870780,-0.00390291,0.003133
-0.07626250,0.07163160,-0.00295918,0.004361
-0.08022040,0.07139350,0.00991267,0.003475
-0.09134130,0.14814299,0.01614580,0.043856
-0.02737360,0.07000520,-0.03353230,0.011344
-0.03002740,0.06920730,-0.02896770,0.005274
-0.03162770,0.07112180,-0.02665140,0.002784
-0.03306290,0.06997650,-0.02127430,0.015228
-0.03536420,0.07058960,-0.01770970,0.045200
-0.05870040,0.03910440,-0.00900270,0.105738
-0.06976960,0.07038570,-0.00808666,0.001891
-0.08048320,0.07264620,0.00472466,0.004397
0.01516160,0.12610400,-0.00266395,0.002214
-0.07457210,0.07288300,-0.00757069,0.008934
-0.08239080,0.07627700,0.00270117,0.004037
-0.09128310,0.13369800,0.01421610,0.009161
0.00371049,0.09688170,-0.02809310,0.012471
-0.07613920,0.07662580,-0.00859487,0.009208
-0.07847490,0.07488270,-0.00523624,0.008359
-0.08067810,0.07719020,-0.00290803,0.006364
-0.08346220,0.07652090,0.00927112,0.005065
0.00983826,0.11402000,-0.01786120,0.007292
0.00210649,0.09815650,-0.02612440,0.015064
-0.02850850,0.07575750,-0.03481180,0.018236
-0.03308740,0.07612490,-0.02706610,0.005879
-0.03465680,0.07579060,-0.02150290,0.034984
0.02311040,0.08928070,-0.02402360,0.004260
-0.03121320,0.07713570,-0.03204160,0.010916
-0.07004250,0.07636330,-0.01414640,0.007767
-0.08611370,0.08147070,0.00908143,0.002424
-0.08631900,0.08152000,0.01499360,0.001925
-0.02080420,0.09631820,-0.02705630,0.024347
-0.02110780,0.11439100,-0.01712850,0.003401
-0.07461620,0.08285290,-0.01393250,0.006171
-0.07729500,0.08121600,-0.01005680,0.003678
-0.08001270,0.08216050,-0.00722237,0.004182
-0.08263340,0.08208680,-0.00324616,0.004068
-0.08446670,0.08176690,0.00249573,0.003422
-0.08604450,0.08325910,0.02032550,0.004439
-0.08481600,0.08167460,0.02198490,0.003616
0.05455490,0.06616920,0.00076565,0.034653
-0.03316040,0.08283690,-0.02704930,0.028315
-0.03580280,0.08290470,-0.02277230,0.049546
-0.08619420,0.08425050,0.00298565,0.008235
-0.02870720,0.08272670,-0.03495370,0.019387
-0.03116010,0.08223870,-0.03156270,0.009074
-0.08540300,0.14186500,0.00516647,0.004131
-0.07851690,0.08856280,-0.01076070,0.007013
-0.08070460,0.08876760,-0.00826584,0.003496
-0.08439720,0.08787430,-0.00349923,0.006129
-0.08557080,0.08820730,-0.00109946,0.006515
-0.08761570,0.08812860,0.00369184,0.007963
-0.08853390,0.08769420,0.00897158,0.006958
-0.08857910,0.08772130,0.01496160,0.006570
-0.06438540,0.03485760,-0.00775085,0.134088
-0.05129320,0.03422700,-0.01290130,0.111426
-0.02668390,0.04585560,-0.02727400,0.081788
-0.01463680,0.09815410,-0.02643180,0.020640
-0.02134680,0.10077000,-0.02395880,0.008910
0.02093200,0.08259540,-0.02673470,0.002632
0.00759225,0.09285410,-0.03092370,0.018578
-0.01444780,0.08792740,-0.03802970,0.006663
-0.00859724,0.11451000,-0.01731320,0.004425
0.02648180,0.10993500,-0.01261820,0.003778
-0.01458550,0.03851790,-0.02679910,0.129514
-0.03300540,0.03370440,-0.02729910,0.069876
-0.02678720,0.03404750,-0.02719010,0.078631
-0.00849157,0.09858590,-0.02705350,0.022897
-0.01109540,0.12082400,-0.01201350,0.002877
0.03673790,0.09259920,-0.01298880,0.003928
-0.05716350,0.04357550,-0.00717607,0.068640
-0.01933280,0.09792510,-0.02479200,0.027347
-0.02037980,0.03854670,-0.02830880,0.124796
-0.05876810,0.03371330,-0.00871891,0.129342
-0.05179190,0.10065500,-0.02132580,0.002330
0.00702627,0.09784180,-0.02460550,0.016591
-0.01488920,0.12606800,-0.00252126,0.004662
0.03075780,0.09244600,-0.01885190,0.004308
0.02110490,0.05781260,-0.02661160,0.006520
-0.01692370,0.09704810,-0.02787180,0.016269
0.04600040,0.05818660,-0.00508589,0.026002
-0.00944331,0.08222710,-0.03810670,0.003576
-0.06358810,0.03921240,-0.00717766,0.086374
0.00864227,0.03863710,-0.02330530,0.062106
0.02529350,0.07695570,-0.02484070,0.003356
-0.02296530,0.08951590,-0.03619900,0.019104
-0.05237910,0.03411930,-0.00994653,0.137329
0.02116930,0.06439350,-0.02685780,0.004012
-0.05158670,0.13164000,-0.00280920,0.044864
-0.01496690,0.03455290,-0.02542730,0.144683
-0.01611670,0.12728800,0.00169291,0.004866
-0.04692320,0.12851501,-0.00163965,0.048372
-0.00961381,0.12715800,-0.00378809,0.004367
-0.00745660,0.12856200,-0.00130751,0.005526
-0.00304493,0.12890901,-0.00174857,0.007360
0.00283790,0.12902200,-0.00194723,0.002650
0.00903363,0.12867400,-0.00165013,0.005543
-0.05616070,0.13158800,-0.00571429,0.022980
-0.04575510,0.12716700,-0.00484962,0.028106
-0.00304746,0.12767801,-0.00456004,0.004057
0.00303811,0.12768000,-0.00442000,0.002905
0.01015260,0.12681200,-0.00466464,0.003674
-0.05532590,0.12683600,-0.00601308,0.028794
0.00799473,0.03484600,-0.02069130,0.057017
0.00271790,0.03421910,-0.02047370,0.083766
-0.00295804,0.03424180,-0.02162220,0.058921
0.01346740,0.03532210,-0.01969610,0.053223
0.00440963,0.03830630,-0.02407760,0.078755
0.00140752,0.03834740,-0.02461470,0.080348
-0.00309177,0.03838770,-0.02518660,0.108247
-0.05750230,0.10066100,-0.01952110,0.002340
-0.04857390,0.15316001,-0.00547278,0.025886
-0.06465730,0.03348310,-0.00296009,0.132679
-0.06407960,0.10042600,-0.01739360,0.001442
-0.07044150,0.10013900,-0.01460370,0.002971
-0.03263760,0.15580601,-0.00949884,0.101859
0.03360940,0.03736240,0.00273412,0.013177
0.03209430,0.03978850,-0.00195136,0.009763
0.01585020,0.04496020,-0.02372120,0.012701
0.00889467,0.04264490,-0.02426590,0.003629
0.00312499,0.04527210,-0.02658800,0.002324
-0.00298345,0.04468600,-0.02722220,0.002781
-0.00912346,0.04485240,-0.02806710,0.003838
-0.01453510,0.04432660,-0.02777710,0.011438
-0.02092230,0.04609130,-0.02819180,0.032543
0.03405200,0.04484340,-0.00540113,0.012257
-0.03126460,0.15825699,-0.01223000,0.140014
0.04015090,0.04489810,-0.00354586,0.013951
0.01432530,0.04734840,-0.02515130,0.004130
0.00937888,0.04665260,-0.02616850,0.001285
-0.07665310,0.06954230,0.02079820,0.003924
0.00872460,0.05179160,-0.02916150,0.004242
0.00299372,0.05069270,-0.02985570,0.006120
-0.00164566,0.04894360,-0.03041440,0.004434
-0.00321397,0.05225960,-0.03140750,0.004199
-0.00915341,0.05092170,-0.03186810,0.004630
-0.01460180,0.05137520,-0.03190450,0.008295
-0.01615580,0.04885430,-0.03037630,0.008688
-0.02058430,0.05080110,-0.02964350,0.018433
0.04052520,0.05188550,-0.00654453,0.020082
0.01493090,0.05207720,-0.02738590,0.007195
0.04188400,0.04908680,-0.00604367,0.019056
0.01996200,0.05299080,-0.02612190,0.007345
-0.01985010,0.05342340,-0.03122670,0.017333
-0.03362730,0.05271870,-0.01062430,0.074416
-0.04611120,0.05291580,-0.01016640,0.030876
-0.02040000,0.16187499,-0.01465800,0.084004
0.04499240,0.05308980,-0.00614891,0.017911
0.00733679,0.05465320,-0.03050380,0.003714
0.00283568,0.05465320,-0.03074680,0.005048
-0.00302245,0.05770000,-0.03314770,0.000948
-0.00914668,0.05766760,-0.03411650,0.004975
-0.01517000,0.05819900,-0.03498770,0.009583
-0.02027070,0.05810310,-0.03336810,0.013087
0.01408440,0.05796500,-0.02898300,0.001190
0.01033010,0.05885530,-0.02994720,0.001481
0.00732823,0.05888980,-0.03061170,0.001226
0.00273690,0.05901510,-0.03219280,0.001379
-0.03371870,0.05797420,-0.01158240,0.071105
-0.03907110,0.05824670,-0.01150330,0.030657
-0.04604740,0.05791240,-0.01151740,0.009524
-0.00961439,0.06421680,-0.03585640,0.001447
-0.04415700,0.05998250,-0.01238770,0.012688
0.01525100,0.06458030,-0.02956700,0.001930
0.00839294,0.06492140,-0.03169570,0.000462
0.00325858,0.06435290,-0.03324390,0.001032
-0.00361257,0.06458610,-0.03490700,0.000554
-0.01447090,0.06500600,-0.03716030,0.009359
-0.03666230,0.06067900,-0.01227910,0.040884
-0.05264040,0.06364020,-0.01012970,0.014819
-0.03818660,0.06489190,-0.01420730,0.031952
-0.04524950,0.06478560,-0.01398190,0.006685
-0.05992620,0.06229660,-0.00429285,0.025997
-0.07786410,0.11746300,-0.00576778,0.014360
-0.01874470,0.06641510,-0.03747790,0.017615
-0.05776160,0.06448840,-0.00779097,0.015073
-0.06257780,0.06553530,-0.00741131,0.003591
0.02510880,0.07109450,-0.02486040,0.002589
0.02145700,0.07027290,-0.02734150,0.003478
0.01667470,0.07015860,-0.02972030,0.003021
0.01327450,0.07026430,-0.03120740,0.002812
0.00867525,0.07035090,-0.03242780,0.002662
0.00229643,0.07086940,-0.03431230,0.001005
-0.00306460,0.07038100,-0.03535650,0.000360
-0.00773679,0.06917490,-0.03620510,0.000492
-0.01019880,0.07151220,-0.03737780,0.001449
-0.01474540,0.07044290,-0.03829430,0.009698
-0.02039840,0.07065160,-0.03815800,0.022240
-0.02409670,0.06934180,-0.03625210,0.018128
-0.06051750,0.06735970,-0.01082590,0.004803
-0.03872930,0.07063550,-0.01684570,0.023274
-0.04513470,0.07050640,-0.01645040,0.002649
-0.05234350,0.06978620,-0.01459840,0.010746
-0.05915150,0.07028910,-0.01472030,0.007672
-0.06525150,0.06884920,-0.00993982,0.002272
-0.02476140,0.07197770,-0.03683170,0.018438
-0.06378840,0.07126970,-0.01385350,0.006182
0.02114540,0.07692680,-0.02687720,0.001445
0.01621280,0.07652680,-0.02937840,0.000964
0.01332470,0.07601960,-0.03067150,0.001057
0.00907695,0.07603800,-0.03303820,0.002145
0.00245085,0.07608570,-0.03516150,0.002168
-0.00176321,0.07622880,-0.03606880,0.001925
-0.00476487,0.07628600,-0.03697420,0.002065
-0.00962992,0.07659360,-0.03786510,0.002795
-0.01444810,0.07641180,-0.03857750,0.004514
-0.02145300,0.07635740,-0.03866800,0.010372
-0.02497700,0.07624840,-0.03745180,0.019632
-0.03774530,0.07661640,-0.01891240,0.040668
-0.03973950,0.07466230,-0.01802550,0.016925
-0.04374230,0.07659050,-0.01879220,0.007102
-0.04663770,0.07448450,-0.01736680,0.002475
-0.05186230,0.07458120,-0.01750840,0.002625
-0.05898660,0.07453680,-0.01766000,0.007916
-0.06440810,0.07562790,-0.01675290,0.007253
-0.07212950,0.07402560,-0.01057190,0.006518
-0.06152330,0.03541320,0.04388100,0.148224
-0.05249710,0.07698720,-0.01895360,0.004544
-0.05874820,0.07674450,-0.01874620,0.005784
0.01310200,0.08099530,-0.03079170,0.000900
0.00892296,0.08206520,-0.03254780,0.001916
0.00229170,0.08202970,-0.03492790,0.002298
-0.00177837,0.08048050,-0.03644710,0.004726
-0.00379684,0.08241930,-0.03732800,0.002617
-0.01429880,0.08203840,-0.03902110,0.003868
-0.02077080,0.08238620,-0.03873350,0.016489
-0.02480890,0.08189680,-0.03770310,0.016965
-0.07358190,0.07770260,-0.01220230,0.006960
0.01542500,0.08312880,-0.02952070,0.004637
-0.03839940,0.08179190,-0.02095960,0.042421
-0.04511840,0.08155260,-0.02043400,0.004681
-0.05181400,0.08184720,-0.02113480,0.004198
-0.05836890,0.08127240,-0.02029750,0.007412
-0.06394900,0.08276800,-0.01889350,0.007035
-0.06627090,0.08006500,-0.01778320,0.010492
-0.06955940,0.08305930,-0.01705820,0.009066
-0.00481814,0.08684100,-0.03679510,0.008488
-0.02482060,0.08675240,-0.03676390,0.023383
0.01320460,0.08716020,-0.03054730,0.008347
-0.03608370,0.08670760,-0.02379100,0.055465
-0.00877843,0.03405560,-0.02049270,0.073634
-0.02071280,0.03423820,-0.02087280,0.053427
-0.01479150,0.03410960,-0.02076160,0.075811
-0.02657670,0.03429630,-0.02109890,0.067615
0.00282685,0.03510530,-0.01581360,0.058935
0.00885967,0.03447100,-0.01474870,0.048704
-0.03908480,0.03372280,-0.02026170,0.117403
-0.03266560,0.03453340,-0.02018740,0.060096
-0.00224535,0.03515390,-0.01662340,0.041547
-0.01490960,0.03573130,-0.01809560,0.057554
-0.01148080,0.03536620,-0.01770450,0.041073
-0.00921575,0.03801830,-0.01497320,0.032590
-0.00282494,0.03822920,-0.01406360,0.027334
0.00285919,0.03773240,-0.01347150,0.043307
0.01591090,0.03470980,-0.00882204,0.047363
-0.03068390,0.03669300,-0.01845980,0.013021
-0.02652160,0.03674710,-0.01881770,0.044660
-0.02183410,0.03697180,-0.01843030,0.037245
-0.02030270,0.03827650,-0.01525770,0.012929
-0.01525960,0.03823280,-0.01564280,0.035068
0.00738356,0.03661720,-0.01250030,0.032122
0.00992361,0.03519790,-0.00924624,0.026289
0.00702596,0.03783870,-0.00879015,0.018989
-0.03969580,0.03428430,-0.01457800,0.150966
-0.03295170,0.03821540,-0.01467800,0.017772
-0.02638620,0.03857780,-0.01536440,0.012087
0.00320835,0.03894240,-0.00953857,0.028978
-0.03643870,0.03579460,-0.01558440,0.120370
-0.00301526,0.03910610,-0.00886496,0.017419
0.00831664,0.03481560,-0.00321961,0.013681
0.01450390,0.03436850,-0.00284330,0.019577
-0.03657520,0.03702760,-0.01365340,0.195259
-0.01462340,0.03880550,-0.00887465,0.013347
-0.00886749,0.03893940,-0.00890173,0.015664
-0.04510320,0.03367210,-0.00848668,0.063132
-0.04031300,0.03508010,-0.00861758,0.053672
-0.02062350,0.03860000,-0.00878063,0.003062
0.00267879,0.03842400,-0.00319748,0.009681
0.01504400,0.03505170,0.00289039,0.011636
0.02014790,0.03478060,0.00348327,0.019896
0.02711900,0.03535140,0.00366834,0.016131
0.02807850,0.03655310,0.00082676,0.016131
-0.03760660,0.03756920,-0.00942418,0.113907
-0.03327480,0.03845490,-0.00855692,0.012339
-0.02645410,0.03844970,-0.00886193,0.003857
-0.00299262,0.03895820,-0.00292437,0.015270
0.00451408,0.03560780,-0.00103635,0.013725
0.00881079,0.03504280,0.00356828,0.019900
0.03141840,0.03602550,0.00457907,0.012995
-0.00888202,0.03878840,-0.00299409,0.001677
0.00271787,0.03490910,0.00339755,0.010105
-0.04119900,0.03414710,-0.00327644,0.014406
-0.02054790,0.03842590,-0.00283766,0.000021
-0.01466180,0.03859080,-0.00288739,0.000011
0.00103528,0.03759170,0.00095222,0.010292
0.02157470,0.03549060,0.00861940,0.005052
0.02647940,0.03465140,0.00870654,0.007431
0.03223910,0.03554120,0.00882378,0.007318
-0.05210570,0.03347940,-0.00318207,0.052936
-0.04550780,0.03365720,-0.00225818,0.006088
-0.03341040,0.03832590,-0.00292317,0.013182
-0.02651220,0.03833430,-0.00296504,0.000020
-0.00224847,0.03833540,0.00320971,0.011508
-0.05893860,0.03341430,-0.00291301,0.132474
-0.00874044,0.03859760,0.00291227,0.006025
0.00273457,0.03427340,0.00882480,0.012432
0.00621941,0.03513410,0.00654928,0.012648
-0.08001800,0.10927900,0.03736550,0.080249
-0.03931780,0.03364430,0.00354096,0.030929
-0.02131110,0.03829730,0.00334866,0.000017
-0.01461960,0.03842650,0.00290922,0.000013
-0.00353554,0.03796440,0.00874752,0.011215
0.02766810,0.03496620,0.01495320,0.005161
0.03282000,0.03592550,0.01470370,0.006703
0.03897630,0.03830790,0.01450250,0.001068
-0.05239610,0.03352490,0.00326874,0.003014
-0.04623460,0.03356960,0.00267776,0.003465
-0.02779840,0.03822960,0.00286126,0.022409
-0.00094701,0.03573740,0.01034690,0.011741
0.02222760,0.03582620,0.01602560,0.003493
0.04480510,0.04111920,0.01509610,0.002780
-0.05810640,0.03350400,0.00272997,0.000166
-0.03523230,0.03372480,0.00491425,0.023195
-0.03129850,0.03818580,0.00167702,0.015738
-0.00886410,0.03847000,0.00876261,0.011494
0.00289190,0.03428940,0.01470590,0.015187
-0.07033320,0.03405830,0.00286723,0.082317
-0.06482450,0.03349240,0.00301734,0.094542
-0.03879630,0.03476300,0.00935652,0.035305
-0.03323270,0.03379320,0.00943608,0.017050
-0.02034560,0.03822650,0.00836296,0.000129
-0.01521560,0.03831610,0.00935801,0.000020
-0.00038571,0.03514590,0.01341710,0.013944
0.00663645,0.03423240,0.01596880,0.010478
0.02680740,0.03564690,0.02041260,0.011320
0.03093910,0.03621520,0.01899370,0.007125
0.03341190,0.03761790,0.02100820,0.010985
-0.05157340,0.03389040,0.00817232,0.003960
-0.04549990,0.03528080,0.00804865,0.004797
-0.02632290,0.03803130,0.00871732,0.017097
-0.00318580,0.03770980,0.01451300,0.011384
0.02110510,0.03515520,0.02070040,0.006614
0.03919830,0.03959690,0.02058790,0.002513
0.04417780,0.04187550,0.02048020,0.005724
-0.05802820,0.03356240,0.00918162,0.093784
-0.00922404,0.03834880,0.01502610,0.012549
0.00313746,0.03524260,0.02041760,0.007766
0.00877508,0.03461790,0.02085600,0.007105
0.04684890,0.04342260,0.02109360,0.004746
-0.06480310,0.03374020,0.00884817,0.174524
-0.03381560,0.03450630,0.01502930,0.013713
