//X,Y,Z,Normal change rate (0.005448)
-0.06133930,0.04368980,-0.00485075,0.007720
-0.06279860,0.04415410,-0.00325511,0.002990
-0.06333990,0.04484050,-0.00127233,0.001107
-0.06496980,0.04442520,-0.00028260,0.001762
-0.06643500,0.04462010,0.00170191,0.004565
-0.06623640,0.04534500,0.00468636,0.008214
-0.05437560,0.04355010,0.01870220,0.024821
-0.05516260,0.04362220,0.02119010,0.023679
-0.05804130,0.04393090,0.02418800,0.000905
-0.06014390,0.04486150,0.02768410,0.001258
-0.06189620,0.04436480,0.02868130,0.006968
-0.06290530,0.04447360,0.03068250,0.012775
-0.06294580,0.04519210,0.03368370,0.007932
-0.05010320,0.16553999,-0.00145795,0.015159
-0.07469480,0.16602799,-0.03981020,0.011199
-0.03652640,0.04283890,-0.02785380,0.009212
-0.03820760,0.04311740,-0.02633150,0.005720
-0.04022060,0.04331370,-0.02331560,0.003352
-0.03352230,0.11340900,-0.01703640,0.004120
-0.03358680,0.09473410,-0.02369930,0.000527
-0.05725250,0.04616300,-0.00464192,0.012763
-0.05960400,0.04489140,-0.00442642,0.008156
-0.06044920,0.04612410,-0.00131785,0.005433
-0.06364850,0.04577200,0.00146088,0.003290
-0.09119320,0.14748900,0.02412890,0.025113
-0.09142860,0.14783099,0.02188820,0.021649
-0.05303490,0.04483240,0.01769640,0.031765
-0.05214300,0.04555910,0.01888100,0.024524
-0.05381140,0.04524580,0.02192940,0.008081
-0.05495230,0.04607530,0.02442700,0.007624
-0.05696170,0.04522790,0.02518070,0.001976
-0.05744330,0.04622390,0.02767730,0.003809
-0.06022880,0.04614550,0.03087820,0.004532
-0.05332500,0.16271099,0.00105110,0.024284
-0.03378440,0.03970510,-0.03005650,0.005773
-0.03684700,0.04534970,-0.02492330,0.008819
-0.03824620,0.04459700,-0.02437500,0.006589
-0.04171160,0.04490500,-0.01932530,0.010209
-0.04215540,0.04549560,-0.01611470,0.007865
-0.04282440,0.04595460,-0.01341980,0.027165
0.00454895,0.12186900,-0.01247970,0.001726
0.01322620,0.11342600,-0.01702890,0.001870
0.00145704,0.11580900,-0.01826090,0.003140
-0.05454780,0.04527110,-0.00713895,0.010084
-0.05868410,0.04668780,-0.00234651,0.021158
-0.06087290,0.04687940,0.00117374,0.005656
-0.06205520,0.04702170,0.00467413,0.008728
-0.06131770,0.04703120,0.00669678,0.007311
-0.09102250,0.13104600,0.03123080,0.001432
-0.07264580,0.14712600,-0.02186250,0.013720
-0.07325690,0.14714999,-0.01936050,0.033695
-0.05217570,0.04611750,0.01668210,0.041251
-0.05252150,0.04616840,0.02117450,0.012748
-0.05588250,0.04653120,0.02667600,0.008295
-0.05816300,0.04677380,0.02967660,0.002021
-0.06004420,0.04698030,0.03367230,0.003908
-0.07038680,0.16006500,-0.04661190,0.001144
-0.07345810,0.16800000,-0.04401510,0.012777
-0.07887910,0.16594499,-0.03396070,0.062372
-0.04287760,0.11575300,-0.01545810,0.004126
-0.04013200,0.04634040,-0.01897030,0.010088
-0.04101650,0.04645190,-0.01648220,0.011377
-0.04344960,0.04643790,-0.01133510,0.047744
-0.03684860,0.12448700,-0.00684091,0.005105
-0.05366620,0.04783010,-0.00653129,0.009712
-0.05498960,0.04863240,-0.00505824,0.017963
-0.05623410,0.04830430,-0.00371308,0.013506
-0.05740550,0.04866530,-0.00136781,0.015022
-0.05831740,0.04877210,0.00164492,0.024290
-0.05898230,0.04814300,0.00416860,0.027613
-0.05820270,0.04915680,0.00493784,0.040319
-0.05072320,0.04809340,0.01865660,0.024586
-0.05189940,0.04822470,0.02164910,0.011249
-0.05271060,0.04854840,0.02398810,0.015240
-0.05333870,0.04814950,0.02532580,0.024664
-0.05404500,0.04846000,0.02766320,0.019278
-0.05428620,0.04884180,0.03041140,0.024161
-0.05648350,0.04801480,0.03116730,0.007757
-0.05736590,0.04811350,0.03366510,0.003151
0.04889520,0.06283200,-0.00296910,0.004693
-0.05615880,0.15980600,0.00158420,0.032167
-0.01619040,0.12070100,-0.00977802,0.002702
-0.01316740,0.11437900,-0.01715090,0.002803
-0.02973710,0.17998700,-0.01202590,0.082087
-0.03577100,0.04735450,-0.02098600,0.001901
-0.03739270,0.04729150,-0.01895270,0.001850
-0.03901140,0.04729470,-0.01651830,0.007075
-0.04159720,0.04751550,-0.01221770,0.051586
-0.04263650,0.04857380,-0.01110810,0.030566
-0.01284710,0.10731000,-0.02183150,0.002252
0.01590350,0.11326900,-0.01605560,0.001190
0.01946100,0.09243330,-0.02443440,0.003808
-0.08379870,0.14805301,0.00415306,0.008559
-0.09092500,0.14562599,0.01548760,0.008525
-0.09134970,0.14517300,0.01681980,0.010989
-0.09158150,0.14541399,0.01915340,0.004326
-0.05360100,0.04914640,0.03315920,0.019458
-0.05287810,0.04908380,0.03466220,0.025230
-0.07498150,0.16868199,-0.04302910,0.007912
-0.07787330,0.17262501,-0.04601700,0.145432
-0.07331580,0.16521500,-0.04098630,0.008282
-0.07285540,0.15753201,-0.03391710,0.009844
-0.01880360,0.12076800,-0.00982745,0.002770
0.01820350,0.09438600,-0.02392540,0.005871
0.01868870,0.10455500,-0.01896900,0.002140
0.04541560,0.06897610,0.00185111,0.062781
0.02774540,0.10431800,-0.01561990,0.001322
-0.03353220,0.11955100,-0.01068530,0.005701
-0.03104610,0.04763800,-0.02462260,0.027266
-0.03126590,0.04856960,-0.02235590,0.026303
-0.03308780,0.04786640,-0.02230760,0.003326
-0.03395170,0.04837900,-0.01933450,0.009093
-0.03349620,0.04931510,-0.01634220,0.008667
-0.03667670,0.04821370,-0.01594250,0.002294
-0.03684480,0.04882560,-0.01310710,0.023759
-0.03964390,0.04919680,-0.01151090,0.063844
-0.01024630,0.10963000,-0.02136740,0.004677
-0.01908980,0.11570200,-0.01619190,0.002890
-0.05335730,0.05019030,-0.00624112,0.011585
-0.05488820,0.05117300,-0.00437382,0.006376
-0.05656200,0.05136050,-0.00137867,0.015343
-0.05742760,0.05146480,0.00163502,0.006532
-0.05727960,0.05147140,0.00466691,0.005936
-0.09106900,0.14264600,0.01518420,0.011747
-0.07078540,0.15723500,-0.04524540,0.002848
-0.05044170,0.05073090,0.01883870,0.015540
-0.05144430,0.05098410,0.02162990,0.003711
-0.05226750,0.05108360,0.02464040,0.009731
-0.05246030,0.05111810,0.02764910,0.018025
-0.08233590,0.14039400,0.00022263,0.006536
-0.04134000,0.17123500,-0.00891614,0.019615
-0.07262580,0.16577800,-0.04318800,0.009029
-0.07815240,0.16330200,-0.03074600,0.040711
0.02209160,0.11339300,-0.01321030,0.002038
-0.02897340,0.04951560,-0.02298290,0.061141
-0.03144530,0.04963510,-0.01935390,0.052684
-0.03185980,0.04967670,-0.01735110,0.028073
-0.03404280,0.04987010,-0.01333680,0.025284
-0.05177600,0.05102870,-0.00726254,0.008393
0.03129810,0.10455000,-0.01329360,0.001829
-0.07191450,0.14301801,-0.00987037,0.032113
-0.07227740,0.14170800,-0.00782844,0.048076
-0.04989470,0.05221700,0.01664440,0.028572
-0.02173650,0.09466590,-0.03091850,0.003463
-0.00120036,0.12541801,-0.00760196,0.003281
-0.07531620,0.15964299,-0.02794240,0.008147
-0.07318450,0.15963700,-0.03442870,0.014565
-0.06355770,0.17155400,-0.06134900,0.146898
-0.07367470,0.16661499,-0.04199460,0.012998
0.02772660,0.11245000,-0.00999201,0.002696
-0.03396580,0.11038200,-0.01860750,0.002816
-0.02731490,0.05115750,-0.02480010,0.039682
-0.02885440,0.05152450,-0.02239250,0.036780
-0.02980020,0.05161420,-0.01936080,0.041108
-0.03062460,0.05170460,-0.01636090,0.030228
-0.03155780,0.05181110,-0.01339490,0.028563
0.03414490,0.09538210,-0.01382370,0.004766
-0.05745770,0.11618800,-0.01378890,0.000860
-0.00746706,0.11034400,-0.02168470,0.009496
-0.05328370,0.05379430,-0.00644657,0.013364
-0.05481400,0.05396380,-0.00438437,0.013189
-0.05579250,0.05406540,-0.00239858,0.006062
-0.05645720,0.05413750,-0.00089444,0.003004
-0.05699850,0.05420080,0.00162076,0.018613
-0.05673820,0.05418940,0.00465932,0.029436
-0.05611490,0.05413910,0.00718156,0.035961
-0.05550400,0.05409380,0.00867881,0.034842
-0.05202470,0.05387850,0.02763940,0.004922
-0.08523700,0.14738800,0.00618456,0.007173
-0.04569770,0.11613200,-0.01564430,0.001582
0.04525450,0.06717230,0.00069909,0.039370
-0.02621560,0.05194220,-0.02642120,0.013046
-0.01344070,0.11032600,-0.01984830,0.005473
-0.08636990,0.14821400,0.00742132,0.016217
0.01317270,0.09280340,-0.02800890,0.004661
-0.05174950,0.16337800,-0.00191780,0.022412
-0.02518930,0.17804299,-0.01901000,0.008287
-0.08868210,0.13638800,0.00720694,0.002186
-0.02144100,0.18074501,-0.02148100,0.153481
0.01031700,0.11625300,-0.01626310,0.001354
-0.00439721,0.11948600,-0.01364420,0.002475
-0.03686700,0.11060400,-0.01880470,0.001371
0.03081990,0.08964230,-0.01955870,0.001975
-0.02493560,0.05417930,-0.02818160,0.008001
-0.02738990,0.05418280,-0.02539800,0.006980
-0.02871130,0.05431610,-0.02289250,0.005207
-0.02961500,0.05440680,-0.02138430,0.005496
-0.03009840,0.05446180,-0.01938140,0.014505
-0.03059160,0.05452210,-0.01637680,0.011427
-0.03157670,0.05475990,-0.01359380,0.006880
-0.05478300,0.11676100,-0.01422560,0.002057
-0.01636280,0.11051200,-0.01984630,0.001366
-0.05178030,0.05411030,-0.00773085,0.009052
-0.05393910,0.05781520,-0.00698481,0.006448
-0.05515390,0.05675660,-0.00441693,0.005950
-0.05576580,0.05613670,-0.00241411,0.010596
-0.05638820,0.05699760,-0.00121639,0.005800
-0.05715970,0.05697240,0.00159025,0.031336
-0.05757210,0.05715650,0.00471788,0.033370
-0.05733440,0.05723170,0.00743391,0.050453
-0.05580640,0.05620120,0.00862658,0.072831
-0.05254850,0.05593600,0.01312060,0.059459
-0.09116320,0.13229901,0.00922827,0.005034
-0.01984520,0.18075900,-0.02299950,0.135284
0.01902600,0.11614000,-0.01316860,0.002386
-0.01886390,0.11038700,-0.02011160,0.002858
-0.05743020,0.05765640,0.01046720,0.034154
-0.06921630,0.16026001,-0.05144620,0.094559
-0.09179710,0.13284300,0.02222260,0.003925
-0.07344200,0.15546800,-0.02841200,0.023320
-0.06986440,0.16027100,-0.04893590,0.001095
-0.04089470,0.17266800,-0.00780492,0.018255
-0.09161480,0.13240500,0.02522830,0.001530
-0.07497020,0.15755700,-0.02493110,0.011749
-0.01522000,0.18300100,-0.02694650,0.184295
-0.02415650,0.05706500,-0.03043500,0.003039
-0.02575950,0.05684430,-0.02890890,0.006643
-0.02672350,0.05716720,-0.02774600,0.010106
-0.02780110,0.05704220,-0.02540640,0.005219
-0.02891910,0.05716230,-0.02289370,0.002006
-0.02951540,0.05721670,-0.02140630,0.002544
-0.03033860,0.05730000,-0.01940340,0.002410
-0.03116640,0.05739040,-0.01639840,0.003004
-0.03178840,0.05732050,-0.01359230,0.012912
-0.05554370,0.05927190,-0.00512409,0.019397
-0.05690600,0.06058430,-0.00383484,0.035894
-0.05743170,0.05973000,-0.00163232,0.022381
-0.05822600,0.05918810,0.00119713,0.048790
-0.05869630,0.05883310,0.00348495,0.058108
-0.03875140,0.16910000,-0.01217820,0.002366
0.01701910,0.09594940,-0.02347060,0.005970
-0.09120190,0.13241300,0.02722980,0.001637
-0.06302440,0.13624600,-0.00741167,0.000579
-0.07121640,0.15251701,-0.04549870,0.070970
-0.02309490,0.18098700,-0.01966670,0.172449
-0.01657510,0.18361400,-0.02555860,0.201136
-0.04570150,0.11796500,-0.01477830,0.003980
-0.02194130,0.12082800,-0.00987640,0.002224
0.02700760,0.10002100,-0.01789380,0.002257
-0.02180680,0.11049300,-0.02001180,0.003945
0.01566300,0.09159430,-0.02697390,0.005702
0.00726190,0.09594740,-0.02784670,0.004497
-0.04284690,0.09852280,-0.02167070,0.002845
-0.02810900,0.16302100,-0.01538460,0.003869
-0.07383770,0.16937700,-0.04504940,0.010156
-0.05262110,0.16046600,-0.00279252,0.010208
-0.08597590,0.15053500,0.00788299,0.030641
-0.07747770,0.15143999,-0.00439151,0.020289
-0.04870090,0.11919000,-0.01378270,0.002703
0.00739380,0.12178900,-0.01265550,0.002453
0.02812870,0.11095700,-0.01109010,0.001848
-0.02519460,0.05952270,-0.03086320,0.002355
-0.02762070,0.05983460,-0.02792460,0.006621
-0.02862660,0.05993880,-0.02541460,0.001465
-0.02926070,0.05930080,-0.02291060,0.002810
-0.02984920,0.06041970,-0.02216150,0.000734
-0.03071670,0.06013000,-0.01941810,0.000989
-0.03185140,0.06026710,-0.01641290,0.002658
-0.03228000,0.05961600,-0.01440150,0.032789
-0.03337800,0.06009690,-0.01300400,0.038667
0.02865630,0.09876020,-0.01721390,0.002073
-0.04005820,0.03678530,-0.02840760,0.049003
-0.00455234,0.11016000,-0.02168810,0.008826
-0.00151509,0.11318300,-0.01912350,0.013144
0.00157106,0.09255880,-0.03309690,0.006138
0.01559810,0.09528400,-0.02408730,0.012367
0.01021390,0.09860110,-0.02290210,0.017909
-0.06610880,0.06272320,-0.00175837,0.007385
-0.08905260,0.14538200,0.01066910,0.006566
-0.08356950,0.15060000,0.00440282,0.026095
-0.04225530,0.17182900,-0.00676985,0.011436
-0.07154170,0.14670300,-0.02453570,0.023577
-0.05126680,0.11879200,-0.01358620,0.003610
-0.02703010,0.06046090,-0.02946730,0.007399
0.02245280,0.10166400,-0.01991340,0.005960
-0.01871430,0.10752700,-0.02195470,0.003685
-0.03663830,0.03670030,-0.02995590,0.043695
-0.00448383,0.11309300,-0.01925430,0.007233
0.05453270,0.06848120,0.00219828,0.012409
-0.06617260,0.06406820,-0.00392747,0.006644
-0.06869960,0.06409650,-0.00098711,0.005379
-0.06918750,0.06369150,0.00129544,0.003689
-0.05685020,0.15405300,-0.00088309,0.019760
-0.07994350,0.07248120,0.01915140,0.002455
-0.07189180,0.12161100,-0.00845778,0.000850
-0.08199010,0.13386200,-0.00285904,0.003752
-0.06768440,0.16092201,-0.05599420,0.075889
-0.06703920,0.17133300,-0.05770730,0.006035
-0.07447240,0.15480100,-0.02191030,0.036972
-0.07376680,0.15160500,-0.03363660,0.036865
-0.04215060,0.11009700,-0.01852230,0.000785
-0.02401350,0.06136370,-0.03258840,0.001563
-0.02607040,0.06321590,-0.03145810,0.003308
-0.02727670,0.06262290,-0.02994410,0.009609
-0.02873690,0.06275650,-0.02794010,0.006885
-0.02912110,0.06210830,-0.02541870,0.002382
-0.03042260,0.06293680,-0.02242610,0.000946
-0.03161430,0.06304180,-0.01943890,0.000755
-0.03233150,0.06240180,-0.01743930,0.000989
-0.03287320,0.06329870,-0.01625050,0.021094
-0.03395270,0.06286500,-0.01395560,0.021355
0.03317810,0.10363100,-0.01240290,0.003394
-0.01927960,0.03444290,-0.02766280,0.055715
0.00485722,0.09922580,-0.02307800,0.023494
-0.06861720,0.06631300,-0.00389216,0.002030
-0.06981170,0.06598060,-0.00220162,0.001708
-0.07146300,0.06661380,-0.00084316,0.001703
-0.07238530,0.06584850,0.00169126,0.002735
-0.07685490,0.10414200,-0.00921557,0.001035
-0.06678760,0.14660400,-0.02465340,0.022356
-0.07498750,0.06647430,0.00752336,0.001278
-0.07477060,0.06612390,0.01028010,0.001165
0.02200090,0.10729600,-0.01591080,0.002779
-0.04238850,0.12428800,-0.00941662,0.004735
0.03529180,0.10861900,-0.00504659,0.001838
-0.07498490,0.14897700,-0.01872230,0.018914
0.01637030,0.11634800,-0.01418330,0.003268
-0.07334970,0.16242699,-0.03745720,0.007176
0.01647160,0.12007100,-0.01091010,0.001716
-0.02450120,0.06361670,-0.03296540,0.001939
-0.02967600,0.06356600,-0.02542570,0.002280
0.02808620,0.08387170,-0.02181760,0.001489
0.03759070,0.09372010,-0.01116570,0.004144
-0.07429620,0.06718750,0.00188126,0.004013
-0.07482190,0.06693000,0.00451345,0.001927
-0.07330640,0.15264900,-0.03439590,0.021664
-0.09143670,0.11468100,0.02131500,0.008330
-0.07464750,0.14925900,-0.02186550,0.014811
-0.04264170,0.11913200,-0.01376830,0.001372
-0.02411770,0.12070400,-0.00972559,0.002571
-0.02786340,0.06618680,-0.03048110,0.003610
-0.02918480,0.06490070,-0.02847080,0.004407
-0.02989680,0.06590840,-0.02779860,0.004103
-0.03063170,0.06575240,-0.02545300,0.000868
-0.03124880,0.06582940,-0.02243750,0.000719
-0.03202110,0.06566620,-0.02010920,0.000966
-0.03273260,0.06619000,-0.01879110,0.012411
-0.03393900,0.06596930,-0.01636750,0.018745
0.01322000,0.10310400,-0.02117570,0.005120
0.01587750,0.10314000,-0.02121350,0.009596
-0.06940080,0.06827430,-0.00534921,0.002831
-0.07176110,0.06935780,-0.00434053,0.004802
-0.07226790,0.06849140,-0.00201899,0.004096
-0.07449420,0.06973260,-0.00124481,0.007491
-0.07560210,0.06939740,0.00133662,0.004485
-0.07599860,0.06861230,0.00401123,0.001903
-0.07727420,0.06999170,0.00477068,0.002587
-0.07797810,0.06969640,0.00773730,0.002642
-0.05174280,0.11339600,-0.01673590,0.001507
-0.05997030,0.12086400,-0.00920535,0.023429
-0.07096400,0.16942200,-0.05003170,0.005108
0.01895220,0.08662690,-0.02714940,0.003316
-0.04394390,0.16690400,-0.00881722,0.003352
-0.01812630,0.18370900,-0.02404210,0.186942
-0.03661740,0.11708500,-0.01386310,0.005024
-0.02489510,0.06628140,-0.03393030,0.003393
0.03422880,0.11061100,-0.00478417,0.001794
-0.07669920,0.07027950,0.00252119,0.003348
-0.07952170,0.07058290,0.00954625,0.006466
-0.08093010,0.07223690,0.01066720,0.006370
-0.08064400,0.07227310,0.01639520,0.004641
-0.09134130,0.14814299,0.01614580,0.014645
-0.09156220,0.14815800,0.01913920,0.011851
-0.07769270,0.16944399,-0.04196340,0.089558
-0.01036930,0.12224000,-0.01051200,0.003751
-0.00171665,0.11501300,-0.01788290,0.004745
-0.07606290,0.15409800,-0.01640390,0.014236
-0.06313720,0.11311500,-0.01333280,0.001528
-0.01940810,0.18404600,-0.02240920,0.189379
0.02228010,0.12165600,-0.00411948,0.000793
-0.02696680,0.06747010,-0.03254230,0.002556
-0.02909180,0.06911420,-0.03073510,0.003446
-0.03030310,0.06853610,-0.02796160,0.003564
-0.03123130,0.06862810,-0.02545810,0.001473
-0.03199890,0.06835730,-0.02270040,0.000904
-0.03326720,0.06881230,-0.01947240,0.010098
-0.03450120,0.06864550,-0.01735410,0.028703
0.01791640,0.10297800,-0.02104000,0.007462
-0.04235120,0.12285800,-0.01091650,0.003671
-0.05719790,0.03674270,-0.01039630,0.048777
0.00691435,0.08978970,-0.03273260,0.007561
-0.02513840,0.09593010,-0.02515930,0.037201
-0.07259280,0.07143490,-0.00720264,0.003112
-0.07539590,0.07144420,-0.00453758,0.004208
-0.07779120,0.07241930,-0.00146733,0.001416
-0.07813510,0.07211530,0.00127652,0.001311
-0.07904350,0.07187340,0.00353541,0.001318
-0.08048320,0.07264620,0.00472466,0.002593
-0.08096680,0.07250010,0.00754743,0.006709
-0.09084830,0.14887400,0.02263620,0.018046
-0.07619690,0.16797200,-0.04102610,0.015054
-0.01020820,0.11801300,-0.01504040,0.002797
-0.05445640,0.11892500,-0.01267810,0.001600
-0.02556270,0.06878610,-0.03484280,0.003937
-0.02768500,0.06981790,-0.03331450,0.003413
-0.02975160,0.06987840,-0.02997380,0.003371
-0.03257490,0.06946680,-0.02195660,0.000964
-0.02530710,0.11053000,-0.01928160,0.000867
0.01619500,0.12470400,-0.00439819,0.000253
0.01854960,0.12379800,-0.00409204,0.000276
-0.07457210,0.07288300,-0.00757069,0.002622
-0.07736890,0.07293040,-0.00458701,0.007895
-0.07986050,0.07325620,0.00201115,0.002884
-0.05745340,0.06875560,0.03763720,0.003521
-0.09128310,0.13369800,0.01421610,0.002411
-0.09148460,0.13371700,0.01621520,0.004128
-0.04709740,0.16842701,-0.00297818,0.025065
-0.09145120,0.13373600,0.01921600,0.005773
-0.07507460,0.15443800,-0.01916330,0.023313
-0.07629120,0.16241699,-0.03196740,0.010004
-0.05737350,0.12090600,-0.00966052,0.012884
-0.03059790,0.07244700,-0.03037160,0.001189
-0.03157190,0.07145040,-0.02749000,0.000981
-0.03208760,0.07081030,-0.02496720,0.001320
-0.03319720,0.07162680,-0.02246790,0.004093
-0.03427650,0.07161910,-0.01977410,0.011494
-0.00404633,0.09289670,-0.03450100,0.006363
0.02817050,0.08656690,-0.02162800,0.001417
-0.04871480,0.11063600,-0.01813670,0.001755
0.01984800,0.12274900,-0.00463820,0.000271
0.00434905,0.09732420,-0.02706260,0.001674
-0.01731100,0.11757900,-0.01451680,0.003109
-0.07573490,0.07432310,-0.00777881,0.005194
-0.07706040,0.07539370,-0.00714255,0.004831
-0.07847490,0.07488270,-0.00523624,0.007857
-0.07975930,0.07548350,-0.00385809,0.007985
-0.08032140,0.07534230,-0.00148621,0.006208
-0.08128400,0.07529580,0.00131880,0.004551
-0.08223400,0.07482580,0.00451862,0.003805
-0.08303040,0.07559780,0.00752396,0.002547
-0.08213170,0.07484280,0.01053040,0.002747
-0.08200550,0.07487830,0.01352910,0.004086
-0.08170250,0.07483310,0.01653660,0.005942
-0.08135010,0.07509880,0.01940810,0.002105
-0.01673620,0.17788400,-0.02548080,0.139732
0.02172270,0.10514000,-0.01734850,0.002880
-0.02819010,0.07225850,-0.03409430,0.005077
-0.03264990,0.07227300,-0.02497020,0.000833
-0.02821590,0.11543000,-0.01517270,0.001322
0.01744820,0.09092700,-0.02626360,0.004685
0.00440895,0.11612700,-0.01811590,0.003117
0.00733767,0.11514900,-0.01806700,0.003943
-0.00117814,0.10167000,-0.02287910,0.017322
0.00116632,0.09758950,-0.02784140,0.000912
-0.08267030,0.07621020,0.00250991,0.007420
-0.08330260,0.07627990,0.00451110,0.005941
-0.08298530,0.07627410,0.01052240,0.003069
-0.08280530,0.07629040,0.01352190,0.004904
-0.08301150,0.07633470,0.01648380,0.006452
-0.08272120,0.07632170,0.01839250,0.005082
-0.08273100,0.14503300,0.00184346,0.002132
-0.00124181,0.09966270,-0.02433290,0.028620
0.00149735,0.12566100,-0.00731943,0.001567
-0.02978590,0.07333600,-0.03255460,0.004237
-0.03203340,0.07405690,-0.02818330,0.001558
-0.03305280,0.07463280,-0.02683180,0.002139
-0.03358940,0.07445520,-0.02498720,0.003185
-0.03414070,0.07452030,-0.02248320,0.010148
-0.03497870,0.07456800,-0.02053450,0.040779
0.02200690,0.08996130,-0.02425030,0.001935
0.01933290,0.11372000,-0.01454970,0.002082
-0.07788800,0.07781390,-0.00753768,0.001474
-0.07940730,0.07723950,-0.00557672,0.004937
-0.08050150,0.07816380,-0.00433353,0.003526
-0.08166740,0.07801700,-0.00169954,0.002157
-0.08229340,0.07753650,0.00051181,0.004943
-0.08319250,0.07842590,0.00171342,0.002745
-0.08428890,0.07838550,0.00451455,0.004673
-0.08472990,0.07810340,0.00726296,0.009489
-0.08443370,0.07778650,0.01051590,0.005009
-0.08431160,0.07754020,0.01639650,0.004679
-0.08321150,0.07834410,0.02202360,0.005367
-0.08203670,0.07705400,0.02292920,0.002170
-0.07083380,0.14397800,-0.01495160,0.022118
-0.03872360,0.17414500,-0.00898261,0.024014
0.00718918,0.11336600,-0.01914290,0.007326
-0.05461520,0.11346500,-0.01628520,0.000726
-0.02902230,0.07541740,-0.03466810,0.006918
-0.03046300,0.07555760,-0.03306080,0.007246
-0.03174800,0.07566460,-0.03053020,0.002375
-0.04553670,0.11111900,-0.01757200,0.003385
-0.01626380,0.11452700,-0.01730020,0.005151
-0.07264230,0.07821650,-0.01346290,0.002764
-0.07505570,0.07792510,-0.01032240,0.001007
-0.03348870,0.04711430,-0.02435650,0.006062
-0.08241180,0.07889510,-0.00049411,0.002615
-0.08545990,0.07916380,0.00800753,0.011006
-0.08552790,0.07920010,0.01051040,0.012150
-0.08570090,0.07922290,0.01350890,0.012596
-0.08564940,0.07923990,0.01650380,0.011972
-0.08280000,0.07903750,0.02501470,0.006873
-0.08249390,0.07895310,0.02664260,0.003737
-0.02203620,0.09275940,-0.03408780,0.008145
-0.06732810,0.17381100,-0.05814110,0.008041
-0.02213530,0.09658390,-0.02540220,0.038458
0.01667000,0.11051100,-0.01676730,0.001660
-0.03321560,0.07794200,-0.02751560,0.002792
-0.03417280,0.07732530,-0.02500130,0.005977
-0.03461820,0.07737390,-0.02249780,0.011947
-0.03488980,0.07670030,-0.02049600,0.034389
-0.01994520,0.11458400,-0.01734460,0.003374
0.01513450,0.11532300,-0.01527530,0.001502
0.01009570,0.11284000,-0.01858210,0.004993
-0.07308480,0.08015770,-0.01408070,0.005723
-0.07434900,0.08119420,-0.01340100,0.003960
-0.07534880,0.08007460,-0.01127610,0.000617
-0.00747680,0.11967500,-0.01383300,0.002815
-0.07856340,0.08033090,-0.00825773,0.001598
-0.07975660,0.08090650,-0.00687550,0.003187
-0.08114360,0.08062800,-0.00475203,0.004268
-0.08213220,0.08018170,-0.00203119,0.003891
-0.08300890,0.08129380,-0.00126110,0.003596
-0.08363080,0.08102410,0.00149751,0.003661
-0.08485110,0.08112110,0.00449788,0.004436
-0.08598440,0.08122080,0.00749640,0.005469
-0.08636060,0.08128090,0.01050470,0.006566
-0.08660430,0.08130620,0.01349750,0.007728
-0.08641710,0.08131240,0.01649050,0.007239
-0.08583510,0.08142440,0.01928110,0.005299
-0.08521410,0.08059230,0.02047660,0.004434
-0.08434330,0.08118890,0.02249070,0.004393
-0.08401060,0.08116910,0.02499850,0.004148
-0.07477210,0.14174099,-0.00658878,0.046203
-0.07602480,0.14237000,-0.00578337,0.039548
-0.07679280,0.15553600,-0.01840620,0.022934
-0.07668120,0.15280400,-0.00938878,0.016148
-0.08796430,0.11580900,0.00328051,0.003420
-0.02896800,0.07750460,-0.03493030,0.006715
-0.03059620,0.07855210,-0.03336450,0.005232
-0.03204550,0.07876840,-0.03121070,0.005786
-0.03246040,0.07833740,-0.02987750,0.004288
-0.06201900,0.17397000,-0.06183990,0.200361
0.02152070,0.10375700,-0.01867040,0.002137
-0.07729060,0.08092540,-0.00996076,0.000979
-0.08236540,0.08154220,-0.00354068,0.007074
-0.07543220,0.15204100,-0.01889170,0.019750
0.00421778,0.11374900,-0.01958650,0.007028
-0.05130620,0.11580900,-0.01546490,0.002908
0.05455490,0.06616920,0.00076565,0.009756
-0.02751740,0.07781950,-0.03605340,0.003606
-0.03426000,0.08085040,-0.02455300,0.011126
-0.03627700,0.08066600,-0.02179340,0.038301
0.00436595,0.09522800,-0.03050320,0.006950
-0.04163120,0.11764100,-0.01444850,0.001906
-0.07559480,0.08399250,-0.01357640,0.005050
-0.07797730,0.08353300,-0.01073260,0.002745
-0.08026880,0.08341450,-0.00756925,0.001864
-0.08194530,0.08354750,-0.00556184,0.004973
-0.08324130,0.08363560,-0.00406107,0.006149
-0.08459690,0.08377850,-0.00151523,0.004320
-0.08491820,0.08315540,0.00149181,0.002733
-0.08634150,0.08393130,0.00448678,0.003682
-0.08659830,0.08396250,0.00748357,0.005124
-0.08675120,0.08399610,0.01048600,0.004524
-0.08684290,0.08402490,0.01348050,0.005188
-0.08669950,0.08401370,0.01648050,0.005250
-0.08638480,0.08400740,0.01947900,0.006561
-0.08591350,0.08434550,0.02221640,0.002660
-0.08489060,0.08324250,0.02298740,0.002351
-0.08477640,0.08390470,0.02499410,0.004956
-0.03677120,0.15135300,-0.00442823,0.015556
-0.07542480,0.15205000,-0.01589410,0.014005
-0.07050960,0.16240001,-0.04694800,0.002043
-0.02771660,0.08062210,-0.03630440,0.006688
-0.02934890,0.08114040,-0.03461140,0.005585
-0.03046950,0.08123580,-0.03307530,0.004972
-0.03174920,0.08134340,-0.03104930,0.003284
-0.03259360,0.08141260,-0.02953790,0.003132
-0.03309770,0.08145880,-0.02752280,0.002934
-0.03966200,0.11734400,-0.01413090,0.004521
-0.03356800,0.11785100,-0.01266760,0.003098
-0.03088610,0.11793400,-0.01276880,0.001367
-0.08604690,0.08456960,0.00148452,0.007606
-0.08540300,0.14186500,0.00516647,0.008723
-0.08884390,0.15009201,0.01122420,0.028025
-0.08464960,0.12933201,-0.00265191,0.006178
-0.08888680,0.15023001,0.02460790,0.009430
-0.01872030,0.18623500,-0.02146100,0.081863
0.01310830,0.09566270,-0.02503370,0.011402
-0.07685990,0.08521860,-0.01257830,0.004176
-0.07856180,0.08716010,-0.01073130,0.001524
-0.07953390,0.08609550,-0.00955428,0.001263
-0.08074580,0.08668870,-0.00769617,0.001937
-0.08345410,0.08637490,-0.00454653,0.003448
-0.08503000,0.08627040,-0.00219764,0.005990
-0.08561010,0.08676620,-0.00085568,0.006128
-0.08670890,0.08662460,0.00147805,0.006202
-0.08779370,0.08658300,0.00427631,0.010626
-0.08785570,0.08609600,0.00747926,0.006571
-0.08806650,0.08612470,0.01047620,0.003765
-0.08782400,0.08610550,0.01346880,0.004633
-0.08767130,0.08610680,0.01646960,0.004086
-0.08770450,0.08646200,0.01971360,0.004022
-0.08720070,0.08678630,0.02245190,0.001670
-0.08790150,0.14874300,0.00925863,0.014390
-0.08460930,0.13716701,0.00065390,0.002930
-0.02753590,0.08388600,-0.03614090,0.010406
-0.02904850,0.08395750,-0.03461970,0.010735
-0.02988610,0.08402760,-0.03309190,0.003350
-0.03126150,0.08413700,-0.03056360,0.002440
-0.03278760,0.08412240,-0.02734590,0.012379
-0.03417370,0.08425860,-0.02476380,0.023654
-0.07710300,0.08728670,-0.01258820,0.002429
-0.08835980,0.08743110,0.00547496,0.012201
-0.08842880,0.08746330,0.00747861,0.017236
-0.08879540,0.08748420,0.01046850,0.011586
-0.08867590,0.08749790,0.01346250,0.005063
-0.08853200,0.08750520,0.01646340,0.003781
-0.08845950,0.08752850,0.01895670,0.003461
0.01434030,0.11733000,-0.01444410,0.002683
-0.07555440,0.15686800,-0.02243360,0.024291
-0.03204960,0.08491870,-0.02857210,0.005650
-0.03532850,0.08514330,-0.02375120,0.024646
-0.00127063,0.12238400,-0.01076000,0.002743
-0.08111920,0.08985280,-0.00783402,0.001504
-0.08403230,0.08962250,-0.00469628,0.003870
-0.08507230,0.08922940,-0.00255645,0.003960
-0.08553140,0.08964840,-0.00134323,0.003843
-0.08662400,0.08930550,0.00147873,0.003537
-0.08785060,0.08939760,0.00397084,0.008954
-0.08835730,0.08942980,0.00547217,0.007334
-0.08877490,0.08947220,0.00746613,0.010675
-0.08928200,0.08952450,0.01046080,0.009458
-0.08938790,0.08954960,0.01345340,0.007743
-0.08938350,0.08956260,0.01645180,0.004457
-0.08912690,0.08956760,0.01944600,0.004838
-0.08792560,0.08886140,0.02292470,0.004153
-0.06342010,0.03645110,-0.00810855,0.076710
-0.02708490,0.08631150,-0.03573370,0.009955
-0.02826530,0.08709730,-0.03401350,0.007382
-0.02956140,0.08613990,-0.03261250,0.002841
-0.03023850,0.08689780,-0.03057400,0.001499
-0.03142860,0.08698890,-0.02755640,0.013248
-0.03385570,0.08691270,-0.02497380,0.037203
-0.05129320,0.03422700,-0.01290130,0.111278
-0.07719080,0.09001970,-0.01256260,0.003446
-0.07847210,0.08996540,-0.01079010,0.001692
-0.08269360,0.09036340,-0.00660783,0.002452
-0.06081950,0.11398900,-0.01394610,0.001238
-0.08510370,0.14322400,0.00618561,0.012078
-0.03209320,0.08773030,-0.02549810,0.035844
0.01635860,0.12256300,-0.00776648,0.000891
-0.07943050,0.09083760,-0.00963692,0.002045
0.02669010,0.10649600,-0.01480240,0.001749
-0.01562120,0.09485470,-0.03307790,0.004428
-0.08882410,0.11444400,0.00524771,0.007406
-0.08503660,0.13488799,0.00029885,0.002207
-0.02960070,0.08901790,-0.03009000,0.002533
0.00066792,0.11704500,-0.01708220,0.002775
-0.08524200,0.11567500,0.00025172,0.001923
-0.02887580,0.04696700,-0.02621490,0.021938
-0.00456317,0.09812790,-0.02819460,0.000614
-0.02479790,0.11843200,-0.01254270,0.001403
-0.02809670,0.11948300,-0.01068430,0.001175
0.00477446,0.09639810,-0.02857600,0.004925
0.02393650,0.09724680,-0.02092800,0.001894
-0.03080520,0.11555400,-0.01529490,0.001698
0.02463670,0.09550430,-0.02111090,0.001591
0.02611770,0.09579810,-0.02041260,0.002519
0.04562990,0.06314790,-0.00228732,0.017286
0.02815930,0.09562310,-0.01921910,0.001858
-0.02499640,0.11705500,-0.01389840,0.002942
-0.01319710,0.09763600,-0.02847040,0.000923
-0.01053600,0.09217990,-0.03582680,0.005176
-0.03665700,0.11347400,-0.01709020,0.002993
-0.03097880,0.04532710,-0.02767590,0.006781
0.05494610,0.06974150,0.00361760,0.010300
-0.00435565,0.11606400,-0.01641930,0.003489
-0.00344803,0.11176900,-0.02041870,0.013601
0.01601370,0.10098500,-0.02229920,0.007708
-0.01922980,0.11312900,-0.01861660,0.003788
0.00428254,0.12533399,-0.00820909,0.002039
0.01573440,0.12141900,-0.00985849,0.001342
0.04131420,0.06372880,-0.00386959,0.056233
0.01031330,0.09655040,-0.02542880,0.006528
-0.02133270,0.10888900,-0.02132220,0.005941
0.02428060,0.11249400,-0.01223760,0.002262
0.03049710,0.09447590,-0.01799960,0.002131
0.03176230,0.09385770,-0.01733570,0.002846
0.03385110,0.09274230,-0.01615110,0.001512
-0.02660960,0.04028450,-0.02932940,0.002373
0.00710231,0.11087000,-0.01989320,0.007054
-0.00748035,0.11633500,-0.01606520,0.002547
0.01331650,0.10088100,-0.02252130,0.004331
0.01938450,0.11028700,-0.01585860,0.001078
0.01061300,0.11980900,-0.01410750,0.003905
0.05171750,0.06733810,0.00053683,0.011288
0.01201200,0.11244400,-0.01817570,0.003438
0.03409720,0.10782700,-0.00787166,0.002407
0.00182813,0.09951520,-0.02339230,0.036710
-0.03555100,0.04511350,-0.02647510,0.008274
-0.04556390,0.11975000,-0.01364790,0.003333
0.03514080,0.09311060,-0.01453770,0.000939
0.03591540,0.09158240,-0.01492020,0.002015
0.03742850,0.08986150,-0.01410150,0.002121
-0.06005830,0.11616500,-0.01271600,0.000756
0.01627800,0.11846900,-0.01267790,0.002501
0.03042260,0.11007700,-0.01007050,0.002253
-0.03124760,0.03668120,-0.03041680,0.034468
0.05141300,0.05996810,-0.00375832,0.013232
-0.00127953,0.12386400,-0.00935242,0.002787
-0.06027350,0.03690740,-0.00920616,0.063404
-0.00545884,0.11196100,-0.02062100,0.011143
-0.01621010,0.11616100,-0.01602970,0.007129
0.02935310,0.11744200,-0.00254348,0.002416
-0.05739800,0.11937200,-0.01108080,0.003461
-0.04883640,0.04010650,-0.01158780,0.012867
0.01362050,0.11940100,-0.01324980,0.002961
0.00171218,0.09538520,-0.03101870,0.007760
-0.01886080,0.10091800,-0.02394480,0.017269
0.02217070,0.08420840,-0.02601000,0.001292
-0.05739320,0.11784600,-0.01250660,0.000962
0.02499330,0.08126730,-0.02470140,0.001888
-0.03320020,0.11527700,-0.01548940,0.001103
0.05394000,0.06321880,-0.00094085,0.011526
0.00759225,0.09285410,-0.03092370,0.007234
-0.02833100,0.11319500,-0.01682280,0.004478
-0.03378180,0.04497600,-0.02734830,0.006688
0.02570330,0.06363600,-0.02290400,0.004041
-0.03380500,0.04335530,-0.02880970,0.012697
0.04632090,0.07219810,0.00422749,0.081295
-0.01595050,0.08955820,-0.03742520,0.003235
-0.01287110,0.08623300,-0.03862340,0.006833
0.04809440,0.07134140,0.00496633,0.069262
-0.00703256,0.11197200,-0.02062980,0.009638
-0.00722838,0.11458700,-0.01740300,0.004319
-0.00780844,0.11310400,-0.01925210,0.003119
0.02511860,0.11020600,-0.01303350,0.002954
-0.01001270,0.08716740,-0.03749500,0.003205
-0.05456040,0.12327300,-0.00817572,0.015337
-0.04574600,0.10984900,-0.01826380,0.002686
-0.02818260,0.11702900,-0.01384860,0.004300
0.02438740,0.06275450,-0.02410120,0.002634
-0.02948190,0.17743599,-0.01558590,0.010233
0.04851610,0.06725530,0.00060571,0.014795
-0.01648140,0.03712320,-0.02703100,0.015926
-0.00427319,0.10133200,-0.02314510,0.014187
0.01899350,0.08428280,-0.02766860,0.002633
-0.03103730,0.03458450,-0.03019260,0.042912
-0.00441993,0.11795000,-0.01500290,0.002933
-0.00756374,0.11800300,-0.01504830,0.001590
-0.02671300,0.17767200,-0.01792680,0.005205
-0.02803220,0.15845400,-0.01207020,0.002062
-0.00749554,0.09649900,-0.03122580,0.004356
-0.02778050,0.03370880,-0.02729940,0.069653
0.01305450,0.12432300,-0.00698613,0.000627
0.01027260,0.09498660,-0.02757090,0.004308
0.03316680,0.11261800,-0.00400559,0.001236
-0.00741071,0.09845390,-0.02762450,0.006535
-0.00434100,0.12259100,-0.01096330,0.001154
-0.01024890,0.12092100,-0.01212810,0.003877
-0.03661720,0.11859400,-0.01244020,0.006527
0.00754415,0.09931160,-0.02249620,0.021764
0.02784500,0.10966500,-0.01220300,0.001207
0.00460800,0.12021700,-0.01400640,0.003000
-0.01018400,0.09821560,-0.02781720,0.007726
-0.01294700,0.11787100,-0.01486470,0.006635
-0.01904000,0.11729100,-0.01419490,0.003262
-0.03435230,0.17233001,-0.01433200,0.008016
-0.03251910,0.17411900,-0.01486340,0.004382
-0.02870250,0.17539100,-0.01718380,0.006359
-0.03991620,0.11329700,-0.01688660,0.002246
-0.02183160,0.11701300,-0.01387230,0.003294
-0.01325870,0.18350300,-0.02779040,0.160978
0.03673790,0.09259920,-0.01298880,0.000865
0.03525060,0.10147100,-0.01142500,0.003846
-0.01619320,0.09742400,-0.02726330,0.016834
-0.01317990,0.10141000,-0.02391220,0.002068
0.01329020,0.11607100,-0.01565070,0.001161
-0.03106620,0.04358360,-0.02902530,0.012782
-0.06235800,0.17230800,-0.06187360,0.216858
-0.05994800,0.04275310,-0.00670407,0.004685
-0.01314770,0.08968230,-0.03730750,0.002338
-0.01047940,0.11297000,-0.01866540,0.004742
0.01936700,0.08969380,-0.02578210,0.002714
-0.02517660,0.11316300,-0.01679950,0.002135
-0.05655210,0.04481650,-0.00648016,0.010123
0.01034290,0.12152800,-0.01246720,0.003806
-0.05889740,0.15617099,0.00210438,0.041868
-0.04434010,0.16524200,-0.00899201,0.005215
-0.02198700,0.11250900,-0.01833750,0.002337
0.03623380,0.10146800,-0.01022260,0.002526
0.00978814,0.12371400,-0.00930108,0.000994
0.03329090,0.10685900,-0.00985076,0.001897
-0.02828770,0.03439490,-0.02975380,0.067536
-0.02191600,0.09553820,-0.02852440,0.005213
0.02335170,0.12020300,-0.00555174,0.001638
0.02121360,0.10971900,-0.01525400,0.002964
-0.01027970,0.10115700,-0.02414570,0.035803
-0.02203700,0.09833830,-0.02424110,0.036867
-0.06344110,0.15375701,0.00175379,0.059931
-0.06031910,0.15408801,0.00146985,0.060270
-0.04937770,0.16092700,-0.00574679,0.004705
0.01372450,0.12311900,-0.00868433,0.000955
-0.01933280,0.09792510,-0.02479200,0.032681
-0.05468420,0.03684030,-0.01126560,0.118154
-0.01584880,0.09867500,-0.02481590,0.024680
-0.01330830,0.09888120,-0.02517770,0.032010
0.00680575,0.10092900,-0.02159150,0.014433
0.03020600,0.10688000,-0.01241490,0.001375
0.01979460,0.08721710,-0.02642360,0.001986
0.01470670,0.11101200,-0.01762110,0.001811
-0.01919960,0.03679380,-0.02778520,0.034945
-0.01329650,0.11262000,-0.01828340,0.003675
-0.05098900,0.12102200,-0.01191370,0.001050
-0.01048030,0.09919290,-0.02508610,0.039830
-0.00723382,0.09943370,-0.02531490,0.040885
-0.06025420,0.03416500,-0.00952858,0.151522
-0.06248410,0.03383660,-0.00939579,0.086613
-0.01630410,0.11293800,-0.01861560,0.001883
-0.01506900,0.11781500,-0.01479280,0.005481
-0.06433350,0.15305801,-0.00030760,0.057892
-0.06296480,0.15263300,0.00010205,0.044694
-0.06094530,0.15240300,0.00030718,0.067192
-0.06045590,0.15131700,-0.00052538,0.076785
0.02421400,0.08860010,-0.02379690,0.002468
0.02511330,0.10439400,-0.01680950,0.002551
0.02363730,0.10374300,-0.01785450,0.004466
-0.04839250,0.11564600,-0.01552830,0.002858
0.04812150,0.06365070,-0.00229096,0.003483
-0.04884390,0.09851560,-0.02200790,0.001792
-0.03121780,0.04217400,-0.02971490,0.010224
-0.02888040,0.04219230,-0.02954500,0.010813
0.00130597,0.11386700,-0.01948840,0.009364
0.01539980,0.10929400,-0.01776650,0.002833
0.02754720,0.09802380,-0.01856030,0.002090
-0.02227030,0.11419800,-0.01691250,0.002617
-0.02504900,0.03698580,-0.02909000,0.052783
0.00110105,0.09865230,-0.02550490,0.009747
0.01307640,0.09827430,-0.02310360,0.019642
-0.00623267,0.10133000,-0.02337570,0.021961
0.00405209,0.09822770,-0.02502680,0.007176
-0.03695150,0.04037170,-0.02894610,0.007484
-0.03394400,0.04197200,-0.02950090,0.010794
-0.03958320,0.04794990,-0.01334980,0.046680
-0.03084120,0.11346100,-0.01710090,0.004369
0.02936490,0.10508900,-0.01432540,0.001739
-0.00996610,0.11443300,-0.01722340,0.005060
0.00702627,0.09784180,-0.02460550,0.005673
0.01016510,0.11446600,-0.01734090,0.002020
-0.05502980,0.12032500,-0.01111920,0.000994
-0.06027770,0.14858299,-0.00178541,0.053301
-0.05737070,0.14826401,-0.00162685,0.034924
0.03317440,0.08993340,-0.01819590,0.003651
-0.01313180,0.09227340,-0.03593860,0.006214
0.02114600,0.10105900,-0.02098320,0.005173
-0.03105940,0.04674880,-0.02601930,0.006508
-0.06285790,0.06798950,0.03494920,0.002000
-0.01586190,0.12472200,-0.00461605,0.004824
0.00931953,0.09765760,-0.02407540,0.017683
0.02244620,0.11073800,-0.01415200,0.002696
0.02178200,0.11531600,-0.01228350,0.003896
0.03199740,0.11078500,-0.00806229,0.003371
-0.01054060,0.03697520,-0.02568520,0.039984
-0.06240710,0.14963301,-0.00268499,0.061108
-0.01246330,0.10356900,-0.02369170,0.002647
-0.00720561,0.12449400,-0.00947859,0.004802
-0.04341380,0.11115100,-0.01761740,0.002163
-0.05708860,0.11344000,-0.01570130,0.001266
-0.02745030,0.04310580,-0.02907050,0.012922
0.00549299,0.11763900,-0.01675080,0.004774
0.00724810,0.12392300,-0.00951157,0.001491
-0.05499030,0.04315680,-0.00834398,0.003685
-0.02856190,0.10807300,-0.02047180,0.001445
-0.05751630,0.03914370,-0.00947428,0.001753
0.01248640,0.11785000,-0.01499950,0.002430
-0.01931140,0.12424700,-0.00449387,0.002550
-0.06164210,0.14765500,-0.00355786,0.044894
0.05147480,0.06322820,-0.00234223,0.011743
-0.02200290,0.11569600,-0.01528690,0.003564
0.03262740,0.09496650,-0.01550790,0.003527
-0.01369450,0.12042600,-0.01154310,0.002191
-0.06057800,0.03992630,-0.00813017,0.006114
0.00824435,0.09664820,-0.02634910,0.002999
-0.01889210,0.09653700,-0.02785360,0.004602
-0.05730290,0.04226070,-0.00799111,0.003631
-0.06345170,0.03391530,-0.00732067,0.133387
0.02868140,0.09305380,-0.01983810,0.001838
-0.05966680,0.14587200,-0.00255889,0.023440
0.03473240,0.08822630,-0.01744210,0.003755
0.03075780,0.09244600,-0.01885190,0.003212
-0.05455020,0.04200160,-0.00927101,0.001898
0.03254690,0.09229270,-0.01768420,0.003486
-0.02780120,0.04556210,-0.02764050,0.015035
-0.01049950,0.11143500,-0.02004050,0.005407
0.02242300,0.06010670,-0.02587250,0.004032
0.03468780,0.09025130,-0.01686470,0.004284
-0.06142350,0.17221899,-0.06184130,0.224767
-0.01792570,0.09713060,-0.02696290,0.023160
0.03349860,0.08690010,-0.01852250,0.003842
-0.04873160,0.12127900,-0.01221600,0.002017
-0.05151720,0.03926680,-0.01138000,0.001099
0.04268770,0.05781220,-0.00520494,0.036689
-0.05947540,0.14409900,-0.00268098,0.016829
-0.05730910,0.14293499,-0.00238335,0.009112
0.04387750,0.06952000,0.00022959,0.063550
0.03571650,0.10400800,-0.00945926,0.004339
0.00144799,0.11826500,-0.01589220,0.001605
-0.01040040,0.10350000,-0.02365210,0.007936
-0.05226470,0.11756600,-0.01429970,0.002639
-0.01048600,0.08400030,-0.03841510,0.004318
-0.04701160,0.07105090,0.04099610,0.011388
-0.04551350,0.12438800,-0.00950118,0.001788
-0.01592170,0.09696560,-0.02878060,0.001038
-0.00981592,0.12379700,-0.00918874,0.003164
-0.01194180,0.12072700,-0.01189900,0.003603
0.00810893,0.12058100,-0.01392930,0.003934
-0.06338790,0.04136940,-0.00636221,0.009752
0.00154225,0.10119300,-0.02264370,0.018432
0.01056830,0.03656350,-0.02259930,0.027147
-0.03654400,0.12025000,-0.01117930,0.005633
0.00703609,0.09440960,-0.02995720,0.009389
0.02131040,0.09220500,-0.02360080,0.001569
-0.04835920,0.03375880,-0.01306570,0.165042
-0.05838410,0.14191300,-0.00360341,0.003937
-0.05423420,0.14197101,-0.00133083,0.031242
0.03410380,0.10484900,-0.01069950,0.002801
0.01982880,0.12060200,-0.00797301,0.000707
-0.01199560,0.08822970,-0.03778120,0.003703
-0.00965562,0.08377340,-0.03815350,0.005577
-0.04878820,0.12417500,-0.00923865,0.001944
-0.00738299,0.09316970,-0.03480880,0.008768
-0.01048060,0.09331330,-0.03498000,0.007556
-0.01363280,0.09335770,-0.03504540,0.008224
-0.01638000,0.09363070,-0.03433720,0.006770
-0.01581480,0.09217260,-0.03585040,0.004086
-0.03981080,0.03403490,-0.02807620,0.104984
-0.03605430,0.03983780,-0.02947690,0.008759
0.01498050,0.12394800,-0.00658710,0.000566
0.00137461,0.12391500,-0.00942299,0.001178
0.00413590,0.12406400,-0.00963498,0.001081
0.05160450,0.07112750,0.00466131,0.008292
0.05461880,0.07087070,0.00495150,0.010157
-0.05719060,0.13998900,-0.00419324,0.005788
-0.05429900,0.13969800,-0.00169683,0.012432
-0.01868100,0.09477690,-0.03251640,0.005288
-0.01099830,0.08616650,-0.03837710,0.005599
0.02617650,0.08665550,-0.02300010,0.002002
-0.03416400,0.04648390,-0.02509560,0.005817
0.02815800,0.07819220,-0.02253660,0.000320
0.02534340,0.07843990,-0.02465370,0.001716
0.04846090,0.06024450,-0.00432281,0.009530
0.05570830,0.06164210,0.00036613,0.008785
-0.00067995,0.09022210,-0.03473920,0.002617
-0.00714904,0.09763360,-0.02942500,0.002562
0.01630970,0.08688600,-0.02890110,0.005827
-0.05975720,0.14012800,-0.00537169,0.009730
-0.05534530,0.13899200,-0.00307013,0.005534
-0.05368210,0.13728400,-0.00174574,0.006196
-0.02478360,0.10076700,-0.02388320,0.003301
-0.02212370,0.10079100,-0.02401510,0.008564
-0.04714440,0.13181500,0.00391332,0.015383
-0.02210210,0.03488590,-0.02809130,0.061565
0.02475010,0.08650320,-0.02391840,0.003196
0.04260600,0.05999680,-0.00399459,0.042866
0.04596210,0.06016580,-0.00430819,0.002619
0.00773221,0.09062400,-0.03205910,0.006559
-0.02809660,0.04039380,-0.02953360,0.003396
-0.02387380,0.08931030,-0.03600520,0.007273
-0.02205670,0.08972150,-0.03639280,0.005729
0.01518380,0.08708970,-0.02950340,0.006437
-0.05463830,0.03382920,-0.01059080,0.091825
0.01974850,0.10541300,-0.01763600,0.005622
-0.05523720,0.13676500,-0.00348060,0.006628
-0.05129630,0.13397500,-0.00159630,0.002971
-0.04809730,0.13115101,0.00113626,0.020008
0.02798270,0.08103380,-0.02223260,0.000442
-0.05440890,0.03937330,-0.01061210,0.001700
-0.05150670,0.03646000,-0.01208700,0.052969
-0.02706410,0.03765450,-0.02937450,0.025474
0.02247550,0.06271750,-0.02562170,0.008623
-0.00118164,0.09492860,-0.03257440,0.008541
0.01000240,0.09220150,-0.03015530,0.010437
-0.01107420,0.12341900,-0.00875247,0.001647
0.03948680,0.05723770,-0.00536556,0.060817
-0.02027360,0.09661370,-0.02644510,0.034273
-0.05313990,0.13506000,-0.00280180,0.006430
-0.04996000,0.13305201,-0.00057100,0.005311
-0.00543271,0.09180520,-0.03538940,0.003573
0.01215000,0.09199740,-0.02942480,0.004592
-0.03608930,0.03437020,-0.03061790,0.046598
0.04520340,0.05786750,-0.00539072,0.012151
0.00200796,0.09692290,-0.02864070,0.001218
-0.06291140,0.11534100,-0.01179850,0.003179
-0.05675350,0.13423701,-0.00515845,0.002217
-0.05419580,0.13358600,-0.00421895,0.006354
-0.05237180,0.13355500,-0.00317026,0.007385
-0.05036640,0.13127100,-0.00200812,0.017133
-0.04906980,0.13034900,-0.00098993,0.037047
0.02642670,0.08249490,-0.02351410,0.001188
-0.01576430,0.03532720,-0.02637830,0.051287
-0.01611670,0.12728800,0.00169291,0.000490
-0.01332340,0.12797900,0.00129235,0.000707
-0.06035480,0.06427220,0.03080110,0.000672
0.03255080,0.11542300,-0.00032921,0.001858
-0.05197020,0.13102899,-0.00365568,0.017235
-0.04832490,0.12888101,-0.00158106,0.037108
-0.04552150,0.12814900,-0.00169823,0.012094
-0.01945100,0.12617500,0.00105149,0.000579
-0.01877220,0.12667599,0.00201167,0.001089
-0.01048420,0.12784100,-0.00148399,0.000678
-0.00745660,0.12856200,-0.00130751,0.000381
-0.00436487,0.12891100,-0.00153169,0.001377
-0.00172499,0.12890600,-0.00196544,0.001936
0.00122931,0.12900200,-0.00189516,0.001099
0.00444650,0.12904200,-0.00199930,0.001087
0.00754605,0.12888101,-0.00185849,0.000627
0.01052120,0.12846699,-0.00144177,0.001190
0.01337310,0.12746701,-0.00162791,0.000927
0.00407755,0.11088100,-0.02026730,0.001815
-0.03477510,0.12358800,-0.00668109,0.004368
-0.03469880,0.12072900,-0.00965910,0.004669
-0.02276000,0.09394200,-0.03169910,0.004044
0.02536960,0.10802400,-0.01444120,0.001266
-0.05616070,0.13158800,-0.00571429,0.002087
-0.05448030,0.13087000,-0.00518511,0.005945
-0.05027890,0.12940800,-0.00267456,0.040683
-0.01553120,0.12682700,-0.00025822,0.001510
-0.01326810,0.12711400,-0.00143305,0.000844
0.01626640,0.12677801,-0.00063389,0.000721
0.01904320,0.12501600,-0.00130280,0.000538
0.01823780,0.08935220,-0.02664210,0.003905
0.02974290,0.11224100,-0.00897067,0.002683
0.03861290,0.10322100,-0.00423074,0.002019
-0.02405880,0.11179300,-0.01836390,0.001934
-0.00166704,0.11813600,-0.01522480,0.002750
-0.05133270,0.12784700,-0.00459859,0.042857
-0.04831060,0.12746701,-0.00440730,0.032338
-0.04576790,0.12754899,-0.00409854,0.011176
-0.05404730,0.03460980,-0.01209290,0.140415
-0.02134450,0.09168440,-0.03542100,0.010165
0.04636470,0.07031870,0.00350637,0.058362
0.04847750,0.07024580,0.00357281,0.056777
-0.01922590,0.12533800,-0.00163312,0.000840
-0.01660780,0.12581301,-0.00198014,0.000925
-0.01013180,0.12706199,-0.00387607,0.001916
-0.00717614,0.12763099,-0.00415169,0.002542
-0.00449686,0.12770499,-0.00466848,0.004323
-0.00159807,0.12764999,-0.00445160,0.002397
0.00151721,0.12756400,-0.00437093,0.001208
0.00455900,0.12779599,-0.00446908,0.001852
0.00739751,0.12759800,-0.00448500,0.002095
0.01034660,0.12717800,-0.00406247,0.001164
0.01665770,0.12579399,-0.00209843,0.000582
0.05512750,0.06370380,0.00029970,0.010423
0.05167810,0.07029190,0.00352756,0.004031
0.02053460,0.09374180,-0.02326860,0.004050
-0.04310670,0.12689200,-0.00492026,0.002267
-0.04002280,0.12664200,-0.00391034,0.001177
-0.01317710,0.12586400,-0.00431884,0.003729
0.01185680,0.12652400,-0.00436904,0.000919
0.01331590,0.12577900,-0.00456131,0.000537
-0.03762060,0.03765430,-0.02935800,0.023556
0.01216970,0.09505620,-0.02663860,0.005870
-0.05743110,0.03375160,-0.01068630,0.089407
-0.02779760,0.04822150,-0.02514800,0.056056
-0.05532590,0.12683600,-0.00601308,0.017007
-0.05236070,0.12647000,-0.00557636,0.032929
-0.04583540,0.12676200,-0.00597239,0.005094
-0.04178060,0.12640400,-0.00562318,0.002229
-0.03978160,0.12612399,-0.00537429,0.003477
-0.02838170,0.12351800,-0.00261643,0.003058
-0.02391100,0.12388500,-0.00309916,0.001865
-0.01066310,0.12609801,-0.00564063,0.003601
-0.00716149,0.12670800,-0.00637059,0.004816
-0.00446464,0.12680800,-0.00650737,0.005099
-0.00192158,0.12659501,-0.00630109,0.002977
0.00281822,0.12654100,-0.00629609,0.001974
0.00447095,0.12667300,-0.00645731,0.002893
0.00659626,0.12664901,-0.00647215,0.002860
0.01100960,0.12594600,-0.00574203,0.000703
0.00665145,0.03439420,-0.02112040,0.032950
0.00403377,0.03431530,-0.02156840,0.032335
0.00159297,0.03439130,-0.02230390,0.027323
-0.00158297,0.03478860,-0.02371520,0.077135
-0.00457777,0.03474470,-0.02405010,0.068744
-0.00749147,0.03476280,-0.02444970,0.047488
-0.01343610,0.03439120,-0.02506090,0.082909
-0.01570040,0.03394020,-0.02484280,0.059177
-0.02535700,0.03500940,-0.02881700,0.078749
0.01426080,0.03598160,-0.02033720,0.019099
0.00766117,0.03645440,-0.02325670,0.037789
0.00441726,0.03686250,-0.02402870,0.022421
0.00141557,0.03689970,-0.02452920,0.022434
-0.00158515,0.03692560,-0.02484960,0.027206
-0.00458422,0.03693000,-0.02508010,0.032434
-0.05171720,0.09891940,-0.02197370,0.005782
-0.01339920,0.03688470,-0.02621390,0.038936
-0.02160200,0.03721490,-0.02843070,0.041079
-0.06726480,0.06800310,0.03225610,0.001791
-0.01253740,0.16947500,-0.02409860,0.100145
-0.01867220,0.16973500,-0.02083870,0.172821
-0.05467900,0.09903260,-0.02127990,0.005145
-0.01917820,0.17196600,-0.02192050,0.129194
-0.02767080,0.17193200,-0.01832750,0.005583
-0.05739170,0.09909470,-0.01989890,0.002403
-0.05988570,0.09900050,-0.01889040,0.005291
-0.04857390,0.15316001,-0.00547278,0.005217
-0.06605060,0.03382710,-0.00700456,0.084906
-0.06674350,0.03365030,-0.00449449,0.059005
