//X,Y,Z,Normal_change_rate_(0.006)
-0.0503202,0.177385,-0.0290068,0.124477
-0.0494205,0.17797901,-0.0294424,0.133986
-0.0479638,0.178287,-0.0290787,0.121832
-0.0464107,0.17820001,-0.0291708,0.133389
-0.0164918,0.185141,-0.0297294,0.142896
-0.014661,0.18421599,-0.0285227,0.204717
-0.0127823,0.18507899,-0.0287815,0.2055
-0.0176058,0.18679599,-0.0293761,0.161078
-0.0105629,0.186268,-0.0287411,0.205121
-0.00897989,0.18723001,-0.0288174,0.188129
-0.0160304,0.18798999,-0.0296434,0.19126
-0.00719414,0.188833,-0.0286632,0.159872
-0.0152826,0.18934301,-0.028658,0.244335
-0.0142348,0.18981101,-0.0288469,0.215906
-0.00588109,0.189573,-0.0293416,0.135142
-0.00513636,0.19101501,-0.0290574,0.130809
-0.0127835,0.190549,-0.0287566,0.238207
-0.0111381,0.19129901,-0.0286216,0.198777
-0.0090388,0.192146,-0.0286406,0.167584
-0.00501143,0.19287901,-0.0290826,0.16294
-0.00703208,0.192596,-0.0286361,0.134463
-0.079798,0.0584511,-0.0289875,0.008202
-0.076823,0.0590808,-0.0288125,0.001583
-0.0568971,0.0593123,-0.0291625,0.007857
0.0544776,0.0601221,-0.0288758,0.05514
-0.0695817,0.0613833,-0.0287877,0.008506
-0.0243633,0.0619311,-0.0284659,0.053711
-0.0879819,0.0623676,-0.02894,0.170732
-0.023281,0.0628734,-0.0288503,0.03967
0.0542604,0.0643569,-0.0285949,0.040973
0.0285523,0.0638102,-0.0290053,0.004247
0.0309101,0.0637475,-0.0289465,0.007865
-0.0214039,0.0647209,-0.0285048,0.032675
0.0326533,0.0638809,-0.0288553,0.019376
0.0225275,0.0642235,-0.0287128,0.004755
0.0364154,0.0641578,-0.0286296,0.044891
0.0209216,0.06608,-0.0289997,0.004012
0.0200261,0.0674869,-0.0291768,0.004604
0.0178836,0.0712661,-0.0291939,0.00577
0.0167841,0.0719732,-0.0283671,0.006767
-0.0386978,0.0741335,-0.0288629,0.037275
-0.0346188,0.0742937,-0.0296124,0.038353
0.0484709,0.0740626,-0.0289663,0.019165
0.0165056,0.0741031,-0.0288159,0.007304
-0.0145378,0.0741625,-0.028875,0.012247
-0.0367403,0.0760993,-0.0292699,0.012111
-0.0689065,0.075825,-0.0293375,0.03823
-0.0694988,0.0760076,-0.028522,0.037395
-0.034998,0.076525,-0.029487,0.007818
-0.0127846,0.0759974,-0.0286876,0.004398
-0.0365205,0.0777754,-0.0292997,0.001926
-0.0341619,0.0778667,-0.0295303,0.001767
0.0163003,0.0779323,-0.0290193,0.008335
-0.0366893,0.0800938,-0.0290627,0.003845
-0.0349502,0.0801734,-0.0293517,0.003691
-0.0714214,0.0799437,-0.0288125,0.005777
-0.033773,0.081075,-0.0296461,0.003188
-0.00874167,0.081916,-0.0292744,0.004217
-0.034776,0.0824476,-0.0291631,0.00786
-0.032827,0.0844921,-0.0291518,0.008087
-0.0727851,0.0840877,-0.0288065,0.007944
-0.0500984,0.0847811,-0.0288514,0.007873
-0.0309768,0.0862308,-0.0293055,0.005939
-0.029923,0.085275,-0.0296669,0.010995
0.0180994,0.0879278,-0.0292559,0.007577
-0.0286659,0.0897649,-0.0287674,0.004584
-0.00192299,0.092625,-0.0296362,0.003464
-0.0645503,0.093996,-0.0285402,0.012284
-0.0265879,0.0937906,-0.0283636,0.004994
0.0465036,0.0939849,-0.0287478,0.006271
-0.0245875,0.095934,-0.0287204,0.005423
0.0214316,0.0962032,-0.0284222,0.005897
-0.0230233,0.0965396,-0.0293791,0.005792
0.00122701,0.097525,-0.0294368,0.002525
-0.0225077,0.0996267,-0.0285472,0.005365
0.00354893,0.101284,-0.0289064,0.002823
-0.020841,0.103788,-0.0285497,0.006423
0.0277098,0.104234,-0.0291751,0.006032
0.054076,0.105909,-0.028422,0.005042
0.0293969,0.107739,-0.0284366,0.005801
0.0302569,0.108366,-0.0289142,0.005929
0.0558973,0.109742,-0.0283317,0.00474
0.0568244,0.113049,-0.028762,0.005027
-0.0166064,0.113402,-0.0284333,0.003645
0.00959533,0.113114,-0.028993,0.001976
-0.0144569,0.117613,-0.0287508,0.005206
0.057227,0.117475,-0.0293733,0.00554
0.0152994,0.121152,-0.0290626,0.00368
0.0170943,0.122922,-0.0290654,0.004708
0.0182876,0.123904,-0.0288844,0.005913
0.0584494,0.125374,-0.0288299,0.003608
0.0205504,0.125374,-0.0285372,0.004996
-0.0104486,0.127377,-0.0283721,0.002541
0.021352,0.12657499,-0.0293376,0.005987
0.0307409,0.12764101,-0.0284821,0.025196
-0.00645098,0.134795,-0.0284438,0.001921
-0.036297,0.137265,-0.029474,0.004821
-0.0404587,0.137023,-0.0290988,0.021686
-0.0345032,0.137291,-0.0292039,0.005016
0.0544723,0.139328,-0.0286664,0.003247
-0.033948,0.139175,-0.0295465,0.002223
-0.0324473,0.13915201,-0.0291479,0.003129
-0.0323683,0.14146,-0.0294117,0.008139
0.00085932,0.14348701,-0.0288738,0.002484
-0.030648,0.143318,-0.0290446,0.00783
-0.032023,0.143025,-0.0294554,0.011483
-0.050794,0.1472,-0.0291454,0.006569
-0.0286289,0.147315,-0.0287659,0.05727
0.00512379,0.14748199,-0.0286194,0.001852
0.048125,0.147438,-0.0288897,0.003796
-0.0283786,0.149332,-0.028778,0.082145
0.00713693,0.149051,-0.028291,0.001694
0.0429937,0.15008,-0.0294086,0.003937
-0.0505963,0.15124799,-0.0289381,0.006266
-0.0282837,0.15132301,-0.0289293,0.074566
0.0427462,0.151114,-0.0285562,0.00228
0.0403472,0.152631,-0.0283644,0.001854
-0.0507507,0.153024,-0.029168,0.008987
0.032027,0.15387499,-0.0296109,0.003265
0.0352353,0.153924,-0.028945,0.001704
-0.0506459,0.154881,-0.0294437,0.012318
0.0209961,0.15463901,-0.0284648,0.002151
0.022227,0.15447,-0.028932,0.001647
0.0309111,0.154919,-0.0284365,0.001773
-0.052578,0.154852,-0.0289978,0.011781
-0.052554,0.157065,-0.029157,0.021851
-0.0505342,0.1569,-0.0292656,0.021904
-0.0579758,0.16321599,-0.0287708,0.02033
-0.0560699,0.164997,-0.0290336,0.009889
-0.0169414,0.184113,-0.0291862,0.130129
-0.0187433,0.18486699,-0.029262,0.120482
-0.0186884,0.186836,-0.02906,0.121706
-0.0167645,0.188528,-0.0288259,0.242055
-0.0384105,0.0531667,-0.0283312,0.01787
-0.0305088,0.0558783,-0.0283092,0.053606
-0.051623,0.057275,-0.0291724,0.004547
-0.0524809,0.0577609,-0.0284434,0.007887
-0.0282835,0.0580332,-0.0284118,0.064434
-0.0898187,0.0582919,-0.0285645,0.254318
-0.0878526,0.0585817,-0.0285826,0.227921
-0.0896544,0.0601155,-0.0286827,0.267546
-0.0264546,0.0598076,-0.0286158,0.059428
-0.0875198,0.0640124,-0.0282874,0.10795
0.0267022,0.06375,-0.0291178,0.004862
0.0536802,0.0656754,-0.0284535,0.020486
-0.0783118,0.0691064,-0.0283298,0.048374
-0.067023,0.0733168,-0.0289875,0.110481
-0.0366003,0.0743366,-0.029127,0.036864
-0.0384745,0.0781716,-0.0288449,0.014825
-0.0108609,0.0779814,-0.0286997,0.004093
-0.00890992,0.0799815,-0.0284705,0.003024
-0.0363927,0.0822387,-0.0286512,0.00918
-0.0466725,0.0818454,-0.0283991,0.023044
-0.00730852,0.082088,-0.0284721,0.003905
-0.0344016,0.0843024,-0.0287484,0.010738
-0.0324541,0.0861871,-0.0286617,0.007037
-0.0306793,0.0879085,-0.0287608,0.005625
0.0234574,0.0994642,-0.028291,0.005441
0.051936,0.101664,-0.0283442,0.004472
0.00632866,0.106176,-0.0283491,0.001568
-0.018444,0.109518,-0.0282496,0.003979
0.0580145,0.117781,-0.0286973,0.004785
0.016542,0.12162,-0.0283402,0.005388
-0.0121441,0.123399,-0.0284009,0.003811
0.0331331,0.123455,-0.0284736,0.02093
0.0264284,0.12789699,-0.0284083,0.01138
-0.00848724,0.130916,-0.0284393,0.002141
-0.0366238,0.13512,-0.0290251,0.004335
-0.0386098,0.13516501,-0.0289624,0.006139
-0.0404317,0.13522001,-0.0288788,0.00998
-0.038148,0.13654999,-0.0293051,0.007994
-0.0309298,0.13951001,-0.0288025,0.004042
-0.0305647,0.141166,-0.0288868,0.003692
-0.0525461,0.153163,-0.0287941,0.006425
0.0189292,0.15376601,-0.0288728,0.001711
0.019777,0.153975,-0.0289875,0.001544
0.0326186,0.154741,-0.0282842,0.001754
-0.0541363,0.156831,-0.0285521,0.032804
-0.0205921,0.184582,-0.028797,0.127537
-0.0116468,0.18554901,-0.0283653,0.211312
-0.0408702,0.0534068,-0.0282607,0.010509
-0.051273,0.0572869,-0.0286835,0.005025
0.052849,0.0587164,-0.0283064,0.061194
0.0542563,0.058588,-0.0281513,0.051707
-0.061248,0.0610556,-0.0284625,0.011762
-0.0890743,0.0624038,-0.0281298,0.177605
0.0269611,0.0623437,-0.0283528,0.003525
0.0246655,0.0622903,-0.0282475,0.006096
0.0286559,0.062442,-0.0282221,0.002125
0.0306759,0.0623997,-0.0281372,0.001602
0.043052,0.0630006,-0.028504,0.019685
0.0210249,0.0644592,-0.0281167,0.007288
-0.083823,0.0691476,-0.0284625,0.096045
-0.0819443,0.0691821,-0.028595,0.065321
-0.016972,0.0699737,-0.0282862,0.020188
0.049675,0.06989,-0.0282254,0.02048
0.0175603,0.070225,-0.0284768,0.004793
-0.0146724,0.0725572,-0.0282684,0.010263
-0.0130464,0.074393,-0.0282039,0.002902
-0.040848,0.0757468,-0.0286023,0.041149
-0.0388917,0.0761604,-0.0287797,0.026254
0.0498166,0.0763222,-0.0279343,0.023435
-0.0426994,0.0777914,-0.0284002,0.040615
-0.0112947,0.0762181,-0.0279709,0.003458
-0.0445585,0.0800137,-0.0282946,0.033948
-0.0387565,0.0800331,-0.0285515,0.009305
-0.0383054,0.0816926,-0.0283033,0.0111
-0.0364613,0.0840283,-0.0280442,0.009426
-0.00533079,0.0841889,-0.0282572,0.003162
-0.0734704,0.08615,-0.028351,0.008762
-0.0526986,0.087099,-0.0284249,0.005804
-0.0325668,0.0874123,-0.0279798,0.007877
0.0174438,0.0877453,-0.0282288,0.005145
-0.0734376,0.0880393,-0.0281214,0.011432
-0.0030247,0.0878702,-0.0280931,0.001432
0.0175914,0.0894094,-0.0279467,0.004951
-0.0283246,0.0914776,-0.0280388,0.005741
-0.00168966,0.0904798,-0.0281966,0.001395
-0.058747,0.0911977,-0.0284075,0.007497
0.0459717,0.092044,-0.0281806,0.017868
-0.0007817,0.0919944,-0.0281571,0.001534
-0.0697494,0.0933474,-0.0281543,0.012726
0.00045105,0.0942822,-0.0282579,0.00202
-0.0242214,0.0978583,-0.0281409,0.006143
0.00265048,0.0979213,-0.0281184,0.002269
0.0249673,0.101476,-0.0282657,0.00598
0.00435812,0.101588,-0.0280607,0.00176
-0.0200466,0.105822,-0.0284693,0.004252
0.0084776,0.109813,-0.0280152,0.002778
0.0313067,0.11137,-0.0280723,0.006498
0.0331864,0.115343,-0.0281872,0.011688
0.0580152,0.115933,-0.0283085,0.005195
-0.0162083,0.115171,-0.0281705,0.003234
-0.0142211,0.119485,-0.028188,0.004566
0.0224064,0.126113,-0.0281725,0.006282
0.0281187,0.12815,-0.0285747,0.018074
0.0578842,0.133104,-0.028151,0.001959
-0.0404776,0.133397,-0.0285928,0.004232
-0.0425243,0.133517,-0.028441,0.003447
-0.0384017,0.13327,-0.0284518,0.005693
-0.034438,0.13515,-0.0287744,0.008481
-0.0326125,0.13517,-0.028256,0.007562
-0.032615,0.13732199,-0.0287428,0.005401
-0.0426338,0.137218,-0.0285107,0.027733
-0.0307949,0.13723201,-0.0281692,0.005837
-0.00242066,0.140921,-0.0281509,0.001163
0.0541428,0.141316,-0.0282417,0.003782
-0.00087957,0.142534,-0.0279466,0.001245
-0.0287288,0.143309,-0.0280868,0.002746
-0.0503745,0.143167,-0.0284573,0.043108
-0.0287838,0.145028,-0.0284188,0.003275
0.00134088,0.14485,-0.0281622,0.001914
-0.0524622,0.14698499,-0.0284229,0.007188
0.0498624,0.14681999,-0.0283365,0.003107
0.00350994,0.14684001,-0.0284471,0.002179
0.0479837,0.148276,-0.0282613,0.003051
-0.0523255,0.149388,-0.0281653,0.0033
0.00918718,0.15071,-0.0282346,0.001344
0.0445412,0.15070599,-0.0280756,0.002249
-0.0523544,0.151058,-0.0282035,0.003982
0.0148471,0.15328901,-0.028273,0.001928
0.0188277,0.154312,-0.0280798,0.001992
0.0346994,0.15438899,-0.0284485,0.001868
-0.054423,0.15901799,-0.0285223,0.021242
-0.0524768,0.158972,-0.0287792,0.018208
-0.0600674,0.161313,-0.0280696,0.027449
-0.0598054,0.16289601,-0.0280722,0.021946
-0.0579008,0.166675,-0.0281133,0.004719
-0.0577529,0.17070501,-0.0280924,0.026803
-0.0554266,0.174133,-0.0284221,0.074954
-0.0460352,0.177177,-0.0283925,0.119093
-0.0486635,0.17762899,-0.0280668,0.088055
-0.0187657,0.18294699,-0.0283188,0.144962
-0.0167134,0.183331,-0.0281608,0.134548
-0.0208599,0.182861,-0.0282441,0.129449
-0.0207287,0.18661,-0.0283578,0.137273
-0.0190333,0.18793701,-0.0281289,0.144048
-0.00837925,0.187925,-0.0280347,0.152598
-0.00646624,0.19067299,-0.0282205,0.147665
-0.010183,0.191732,-0.0284513,0.184307
-0.0343855,0.0533874,-0.0281125,0.029029
-0.046898,0.0554569,-0.0283203,0.01026
0.0556232,0.0602529,-0.0281059,0.055906
0.0228293,0.0628557,-0.0279866,0.008649
0.0322304,0.0627715,-0.028018,0.002222
-0.0193934,0.0669058,-0.028107,0.028423
0.0192427,0.0665063,-0.0280755,0.004552
-0.0407292,0.0777573,-0.0285617,0.03419
-0.0712399,0.078422,-0.0280144,0.00594
-0.00948505,0.0783484,-0.0280075,0.002882
-0.0426915,0.0799408,-0.0280967,0.034279
-0.0405251,0.0797515,-0.0282711,0.020852
-0.00773006,0.0806048,-0.027974,0.003086
-0.0343225,0.085605,-0.0280303,0.00889
-0.0301666,0.0896458,-0.0281127,0.005079
-0.0721374,0.0912541,-0.0279459,0.013545
0.0494009,0.09805,-0.0280905,0.004945
-0.0221009,0.100981,-0.0280711,0.004186
0.0576307,0.113825,-0.0279739,0.004371
0.0121163,0.115514,-0.0279998,0.004401
0.0141368,0.118154,-0.0280414,0.006791
-0.0386415,0.131019,-0.0282863,0.007455
-0.040563,0.131428,-0.0283036,0.004017
-0.0425357,0.131183,-0.0280078,0.003828
-0.0364971,0.131265,-0.028115,0.008689
-0.0363342,0.132992,-0.0284491,0.007875
-0.0343868,0.132981,-0.0281715,0.008022
-0.0442781,0.133224,-0.0279944,0.004834
-0.0427463,0.13519999,-0.0284416,0.005426
0.0556938,0.138414,-0.0281414,0.002307
-0.0444636,0.139291,-0.0280236,0.025996
-0.028938,0.141674,-0.0281574,0.00364
-0.0525234,0.142906,-0.028157,0.0766
-0.0527141,0.145005,-0.0280955,0.069438
-0.0543594,0.15297,-0.0282049,0.016937
0.0127574,0.15247101,-0.0279798,0.001613
-0.0542264,0.15493099,-0.0280644,0.037525
-0.0556928,0.15894701,-0.0280424,0.028174
-0.0579365,0.164839,-0.0280615,0.011615
-0.0226574,0.183009,-0.0280713,0.115393
-0.0226494,0.184682,-0.0282783,0.123263
-0.0224927,0.18615501,-0.0279423,0.122439
-0.0381188,0.0533082,-0.0276009,0.019898
-0.0368063,0.0533217,-0.0276327,0.024074
-0.0356828,0.05336,-0.027675,0.029892
-0.0424586,0.0546649,-0.0269335,0.014214
-0.0408446,0.0542816,-0.0267156,0.023485
-0.0346142,0.0544912,-0.0269046,0.058506
-0.0443796,0.0550397,-0.0272998,0.013895
-0.0462197,0.0560478,-0.026674,0.024649
-0.0480702,0.056729,-0.0268854,0.024907
-0.0501233,0.0572648,-0.0274373,0.019091
-0.0899481,0.0584081,-0.0272701,0.19793
-0.0880945,0.058748,-0.0273558,0.222153
-0.0820349,0.0583308,-0.0268833,0.04182
-0.0802338,0.0583041,-0.026975,0.008108
-0.0539788,0.0589385,-0.0269112,0.032245
0.0523164,0.0577833,-0.0267361,0.043501
-0.0858607,0.0590634,-0.0273541,0.175387
-0.0276544,0.0592698,-0.0276999,0.067822
0.0503785,0.0586139,-0.0269067,0.026549
-0.0765593,0.0590663,-0.0268,0.001282
-0.0561646,0.0599608,-0.0267677,0.029442
-0.026526,0.0598216,-0.0268751,0.075079
0.0481836,0.0597684,-0.0269416,0.008619
-0.0897863,0.0602939,-0.0271516,0.219963
-0.0721149,0.0600534,-0.0267388,0.001099
-0.0600159,0.0609828,-0.0272404,0.012534
-0.058308,0.0606796,-0.0267253,0.02559
0.0462973,0.0608224,-0.0269293,0.00725
-0.0692397,0.0613206,-0.0275875,0.004032
-0.0248641,0.0604605,-0.026419,0.046562
0.0246679,0.0601527,-0.0268289,0.007771
0.0256664,0.0609922,-0.0277476,0.007982
0.0271808,0.0610671,-0.0277468,0.004729
0.0455895,0.0613747,-0.0275164,0.008319
0.0557413,0.0624278,-0.0278213,0.045393
-0.0892792,0.0617711,-0.0272328,0.162475
-0.0680079,0.06174,-0.0265204,0.010147
-0.0642038,0.0624704,-0.0265412,0.020847
-0.0625122,0.0620054,-0.0267943,0.024032
-0.024013,0.0617032,-0.0269791,0.055641
-0.0661224,0.0624357,-0.0267147,0.016783
0.0443671,0.0617826,-0.0264974,0.015851
-0.0877347,0.0624963,-0.0265905,0.142552
-0.0227404,0.0623643,-0.026842,0.040753
0.0345236,0.0628184,-0.0277605,0.011048
0.0426249,0.0625389,-0.0266946,0.024181
-0.0220252,0.063741,-0.0275981,0.034957
0.0361976,0.0621678,-0.0269536,0.007197
0.054933,0.0648351,-0.0275744,0.022651
-0.0861575,0.0662619,-0.0268412,0.057993
0.018643,0.065842,-0.0271607,0.004144
-0.0188612,0.066132,-0.026926,0.024601
0.0523494,0.0680679,-0.0267714,0.012795
-0.085491,0.0680166,-0.0270455,0.081855
0.051036,0.0688594,-0.0274676,0.015894
-0.0843951,0.0687836,-0.0264004,0.0844
-0.0821217,0.0692328,-0.0273657,0.061779
0.050691,0.0698492,-0.027159,0.019063
-0.0838303,0.0692208,-0.0271331,0.090881
-0.0774959,0.0691583,-0.0275124,0.036534
-0.0763725,0.0692449,-0.0273104,0.033425
-0.0742744,0.0695505,-0.0274359,0.02303
-0.0724372,0.0694132,-0.0274906,0.038021
-0.0700601,0.069739,-0.0268564,0.074036
0.0164121,0.070223,-0.0271393,0.005881
-0.0148135,0.0698832,-0.0267447,0.003095
-0.0680637,0.0707322,-0.0265861,0.138362
-0.0156871,0.070925,-0.0278762,0.013829
-0.0673541,0.0724974,-0.0269413,0.134166
-0.0668555,0.071705,-0.0265125,0.109509
-0.0140808,0.0716448,-0.0274418,0.005668
0.0160913,0.0721366,-0.0275487,0.005921
0.0499548,0.0725195,-0.0279091,0.014463
-0.0127307,0.0721921,-0.0267384,0.002427
0.0153681,0.0722888,-0.0264873,0.004651
0.049527,0.0739,-0.0282658,0.016616
0.0507785,0.0742322,-0.0269531,0.023649
-0.0686341,0.0739148,-0.0265159,0.085304
-0.0695648,0.0747868,-0.0265594,0.052134
-0.010191,0.0760639,-0.0270437,0.00414
0.0495674,0.0774875,-0.0278223,0.031117
0.0155638,0.0778668,-0.0278637,0.005646
-0.0721881,0.0795988,-0.0273065,0.004861
0.0489458,0.0800819,-0.0266749,0.023923
0.015577,0.079597,-0.0278146,0.00621
-0.044289,0.081614,-0.0279142,0.03685
-0.042838,0.0813433,-0.027873,0.03513
-0.0406535,0.0813193,-0.0279011,0.014403
0.0154281,0.081442,-0.0267512,0.002534
-0.00643679,0.0813084,-0.0273834,0.002133
-0.0463024,0.0828206,-0.0274975,0.024002
-0.00579608,0.0826768,-0.0277543,0.002497
0.0473934,0.0827489,-0.0267125,0.015182
-0.0385401,0.0830591,-0.0278359,0.016269
-0.0732566,0.083525,-0.027833,0.005028
-0.048169,0.0842473,-0.0269942,0.017719
-0.00417373,0.0838887,-0.0271007,0.002911
-0.0502741,0.085955,-0.0264508,0.013179
-0.00393549,0.0855375,-0.0277357,0.002401
-0.0742821,0.0878376,-0.0267278,0.008648
0.0452374,0.0864889,-0.0266794,0.04871
0.0449644,0.0878028,-0.026774,0.051158
-0.0738568,0.0898557,-0.0266138,0.011032
0.0451859,0.0894083,-0.0271573,0.048543
-0.0733245,0.0892166,-0.0278975,0.012597
-0.031051,0.0901552,-0.0272178,0.008554
-0.0584123,0.0915753,-0.0266103,0.005405
-0.059711,0.0924728,-0.0268718,0.009621
-0.061073,0.0929766,-0.0278485,0.007698
-0.0276591,0.0929386,-0.0278208,0.004873
0.00090382,0.0918611,-0.0268168,0.003043
-0.0701749,0.0940892,-0.0269042,0.012208
-0.0623737,0.094359,-0.0268108,0.020782
-0.0638653,0.0944538,-0.0275761,0.014924
-0.0271795,0.0945414,-0.0273974,0.00614
0.00177793,0.0951028,-0.0274115,0.002302
0.0477762,0.0946388,-0.0278624,0.007262
-0.0262528,0.095075,-0.0279375,0.005402
0.0202348,0.0960133,-0.0266973,0.002704
-0.0266562,0.0958991,-0.0267531,0.006177
0.00241006,0.0966167,-0.0276836,0.002589
0.0493254,0.0973507,-0.0276216,0.006696
-0.0251759,0.0981824,-0.0270447,0.004911
0.0220579,0.0984038,-0.0271201,0.003926
0.0504048,0.0975912,-0.0265927,0.004991
-0.024756,0.0994637,-0.0266468,0.004392
0.00479599,0.0997098,-0.0265523,0.002385
0.0243244,0.101906,-0.0267658,0.003516
-0.0229351,0.101708,-0.0270552,0.0047
0.025377,0.102775,-0.0276594,0.005141
0.0530125,0.102181,-0.0272304,0.005288
0.00572946,0.103215,-0.0274564,0.001997
0.0260802,0.104386,-0.0267694,0.003934
-0.0214157,0.104337,-0.0275576,0.003605
0.0539364,0.104455,-0.027726,0.005148
0.0273584,0.105144,-0.0278098,0.005829
0.054899,0.105484,-0.0272488,0.004876
0.00737826,0.105639,-0.0267229,0.001869
-0.0210291,0.105899,-0.0269041,0.002482
-0.0198688,0.107325,-0.0278313,0.003108
0.0282746,0.107641,-0.0267792,0.005947
0.056141,0.107825,-0.0267242,0.004686
-0.0193396,0.109654,-0.0271302,0.002958
0.0573034,0.111932,-0.027834,0.00483
0.0108206,0.111756,-0.0265243,0.003354
0.00997701,0.112575,-0.0282294,0.001709
0.0114043,0.113134,-0.0271395,0.003695
-0.0173401,0.113863,-0.0272511,0.002193
0.0588236,0.115415,-0.0270987,0.004619
0.0132212,0.115713,-0.0269092,0.005331
-0.01659,0.11607,-0.0267201,0.002277
0.0328396,0.117623,-0.0267464,0.010496
-0.0155062,0.117877,-0.0272613,0.003284
0.0146906,0.117648,-0.026839,0.00616
-0.01505,0.119663,-0.0269795,0.001919
0.0162869,0.119463,-0.0265389,0.00786
0.0170193,0.120935,-0.026985,0.007813
0.0334805,0.1215,-0.028072,0.01781
0.0592797,0.120947,-0.02766,0.004419
0.0326105,0.12161,-0.0265441,0.021295
-0.0132107,0.123364,-0.0269045,0.001964
0.0179372,0.122432,-0.0277776,0.009939
-0.0126034,0.12521,-0.0268229,0.001694
0.0321389,0.123671,-0.0270917,0.021961
0.0601657,0.125568,-0.0267433,0.002437
0.0212831,0.124803,-0.027141,0.009832
0.0309115,0.12527101,-0.0266552,0.034112
-0.0114982,0.127423,-0.0269273,0.001523
0.0312614,0.126268,-0.0277355,0.032834
0.059994,0.127488,-0.0266978,0.001978
0.0286385,0.12710001,-0.0274512,0.026604
-0.0404042,0.12943099,-0.0280831,0.005843
-0.0106835,0.12942,-0.0266881,0.001127
-0.0385496,0.12929399,-0.0280018,0.009209
-0.0369954,0.12978899,-0.0279283,0.009423
-0.00921684,0.131532,-0.026834,0.001212
-0.0347706,0.131855,-0.027891,0.009886
-0.043853,0.13189501,-0.027797,0.004752
-0.00801149,0.132525,-0.027798,0.001678
-0.0331592,0.13371401,-0.0280433,0.009643
-0.0443614,0.135271,-0.0279548,0.00503
0.0575083,0.13451099,-0.0277427,0.002344
-0.00731013,0.135416,-0.0269173,0.00114
0.0582798,0.13510001,-0.026491,0.001657
-0.00636166,0.137243,-0.0264788,0.001272
-0.0440439,0.137338,-0.0279818,0.019553
-0.00537009,0.137499,-0.0272459,0.001103
-0.00417443,0.138322,-0.0278696,0.001538
-0.0291342,0.139367,-0.0279781,0.004574
0.0560803,0.139549,-0.0268401,0.001791
-0.0457281,0.141717,-0.0278015,0.017472
-0.0511643,0.141821,-0.0277341,0.066937
-0.0504879,0.14134701,-0.0266614,0.068514
-0.0485833,0.141298,-0.0267927,0.048352
0.053727,0.142325,-0.0281196,0.003473
-0.0538699,0.14308999,-0.0278236,0.089227
0.0530103,0.143842,-0.0273764,0.003145
-0.0538528,0.144298,-0.0279361,0.083602
0.00069529,0.14535099,-0.0270295,0.001569
0.0516689,0.144814,-0.027782,0.003206
0.051113,0.14608,-0.0275106,0.002427
-0.0272349,0.147377,-0.027837,0.00415
-0.0536023,0.147572,-0.0278474,0.004267
0.0504581,0.147505,-0.0270135,0.002195
0.00268945,0.14732701,-0.0272467,0.002038
0.00542701,0.148311,-0.0278208,0.00165
-0.053373,0.148396,-0.0279375,0.00326
-0.0274079,0.14915,-0.0279967,0.044385
0.0482943,0.149361,-0.0266309,0.001749
0.0461691,0.151131,-0.0264307,0.001333
-0.027473,0.15107501,-0.028196,0.049158
0.00884511,0.151546,-0.026878,0.002085
-0.0543063,0.15136699,-0.0277936,0.010786
-0.027294,0.15281101,-0.0278736,0.027296
0.042177,0.152125,-0.0280668,0.00161
0.0426983,0.152973,-0.0266591,0.002237
-0.0563604,0.153341,-0.0272871,0.04585
0.0140631,0.153459,-0.0275857,0.002142
0.0167105,0.154984,-0.0265573,0.007933
0.016627,0.154229,-0.0277663,0.0022
0.0360972,0.154469,-0.0277476,0.001815
-0.0275897,0.154458,-0.0278693,0.034075
0.0187684,0.15511,-0.0266298,0.007955
0.0225026,0.155563,-0.0270764,0.008214
0.0264927,0.155791,-0.0269581,0.003738
-0.027624,0.156591,-0.0277176,0.034723
-0.0548575,0.156166,-0.0272252,0.057204
-0.0560509,0.156946,-0.0266813,0.064596
-0.0559589,0.15772501,-0.0279375,0.050092
-0.0278132,0.15902001,-0.0275011,0.03899
-0.0584006,0.16040599,-0.0274156,0.02606
-0.0281212,0.16111299,-0.0270638,0.034313
-0.0286814,0.162976,-0.0266777,0.029573
-0.0607734,0.163128,-0.0272364,0.021425
-0.030068,0.163516,-0.0276331,0.032354
-0.0300883,0.164864,-0.0270725,0.036188
-0.0307316,0.16666099,-0.0266939,0.03061
-0.0580107,0.169035,-0.0278983,0.012066
-0.0326209,0.168846,-0.0267965,0.03772
-0.03379,0.16964699,-0.0275872,0.043966
-0.0593273,0.169397,-0.0278312,0.012959
-0.0592982,0.170662,-0.0277492,0.016629
-0.0358692,0.171701,-0.0276342,0.051758
-0.0574437,0.172142,-0.0276866,0.037357
-0.0366894,0.173007,-0.0265793,0.043029
-0.0568338,0.17337801,-0.0273409,0.050907
-0.0561223,0.17464601,-0.0266969,0.050333
-0.0406379,0.174779,-0.0268221,0.051512
-0.054567,0.175317,-0.0269045,0.056353
-0.0439891,0.175589,-0.0270547,0.071608
-0.0424429,0.175291,-0.0268789,0.072981
-0.0525648,0.17619,-0.0266802,0.037316
-0.0445545,0.175997,-0.0265481,0.074428
-0.0462989,0.176425,-0.0268197,0.082357
-0.0505116,0.176826,-0.0266412,0.036076
-0.0191493,0.182019,-0.027021,0.120182
-0.0169296,0.18289299,-0.0267871,0.123953
-0.0242816,0.18310601,-0.0277715,0.086052
-0.0240138,0.18475799,-0.0278347,0.103605
-0.0128293,0.184966,-0.0267608,0.214701
-0.0109245,0.18644799,-0.0267524,0.203348
-0.0094071,0.18734699,-0.0274271,0.197425
-0.0208001,0.18792699,-0.0265023,0.108546
-0.0170114,0.189092,-0.0266332,0.213968
-0.0144564,0.18990199,-0.0266666,0.214713
-0.0128398,0.19037899,-0.0266996,0.229488
-0.0107481,0.19052701,-0.026583,0.219163
-0.00944047,0.19166499,-0.0275781,0.175156
-0.0331175,0.0549407,-0.0272595,0.055846
-0.0326247,0.0561718,-0.0265405,0.081624
-0.0312757,0.05698,-0.0264646,0.080461
-0.030201,0.0576246,-0.0266739,0.085261
-0.0505739,0.0579077,-0.0264937,0.03455
-0.0288184,0.0584545,-0.0266785,0.074435
-0.0524866,0.0585435,-0.0266898,0.037268
0.0562136,0.0581322,-0.026979,0.066701
-0.0840758,0.0588053,-0.0267691,0.116495
-0.07421,0.0594981,-0.0268707,0.001346
0.0564776,0.0602355,-0.0274621,0.05541
0.0289645,0.0611527,-0.0276774,0.001726
0.0308076,0.060446,-0.0269458,0.001131
0.0312833,0.0612578,-0.0274381,0.001458
0.0227086,0.0617842,-0.0271908,0.005789
0.0325268,0.0617135,-0.0273556,0.001771
0.0384638,0.0623554,-0.0267299,0.012381
0.0207455,0.0627965,-0.0265607,0.004111
0.0404131,0.0632304,-0.0272993,0.027534
0.0205891,0.0640375,-0.0274966,0.004551
0.056061,0.0641989,-0.0265261,0.009285
-0.02079,0.0642489,-0.0269113,0.031268
0.0189973,0.0645482,-0.0266064,0.003572
0.0543535,0.066217,-0.026724,0.008052
-0.0179516,0.0677037,-0.0274928,0.02473
0.0168475,0.0682735,-0.0268523,0.004911
-0.0801452,0.0686178,-0.026603,0.043601
-0.0162081,0.0694622,-0.0274784,0.01377
-0.0121912,0.073581,-0.0271264,0.002992
0.0152082,0.074215,-0.0269158,0.004683
0.0151036,0.075825,-0.0268218,0.005269
-0.0703777,0.0759737,-0.0266982,0.015717
-0.0708292,0.077316,-0.0275279,0.005979
0.0500352,0.0777593,-0.0265847,0.026678
-0.00876749,0.0776486,-0.0270592,0.003045
0.0150775,0.0777063,-0.0268993,0.00341
-0.0716745,0.0778579,-0.0264352,0.007211
-0.072898,0.0815255,-0.0275418,0.003891
-0.0409425,0.0824939,-0.0274768,0.018824
0.0479975,0.0817937,-0.0265432,0.016867
-0.0049094,0.0818891,-0.0265893,0.002793
0.015927,0.0819852,-0.0275875,0.005055
-0.0442176,0.0827656,-0.0274741,0.034019
-0.0735831,0.0821041,-0.0265254,0.004047
0.0160462,0.0846474,-0.0272649,0.00227
0.0466588,0.0842176,-0.0264495,0.025143
-0.0386463,0.0843262,-0.0271967,0.01693
-0.0367794,0.0846422,-0.0276017,0.009898
-0.074311,0.0857781,-0.0268496,0.008592
-0.0364322,0.0861998,-0.0266422,0.009725
0.0162207,0.0859761,-0.0269274,0.003486
-0.0344601,0.0865328,-0.0271734,0.010916
-0.00282224,0.0859781,-0.0270857,0.002919
-0.00233249,0.0874016,-0.0272487,0.001716
0.0166687,0.0877578,-0.0267582,0.003895
-0.0525708,0.087445,-0.026665,0.006399
-0.0548325,0.0889653,-0.0269967,0.003258
-0.0327984,0.0883534,-0.0272365,0.009936
-0.00082617,0.0895728,-0.0269878,0.002872
-0.00048813,0.0910366,-0.027486,0.001695
0.0180002,0.0914865,-0.0271891,0.004527
-0.0290878,0.0924355,-0.0270956,0.00728
-0.0607374,0.0934608,-0.0264637,0.016071
0.00138723,0.0935166,-0.0270338,0.002362
0.0482085,0.0940068,-0.0265689,0.006342
0.018857,0.093581,-0.0266485,0.002694
0.0487996,0.0956044,-0.0271575,0.006362
0.0212451,0.0976137,-0.0264884,0.003228
0.00335586,0.0970974,-0.0269634,0.00254
0.0511356,0.0990967,-0.0272033,0.004165
-0.023623,0.099625,-0.0276213,0.005961
0.0225748,0.0995955,-0.0265431,0.003849
-0.022454,0.103555,-0.0265638,0.002665
0.0540989,0.103592,-0.0267668,0.00506
0.00764924,0.107381,-0.0274927,0.0024
0.0291777,0.109412,-0.0264781,0.005664
0.0568058,0.109562,-0.0269674,0.004471
-0.0188359,0.111265,-0.0265815,0.001947
0.0304477,0.111403,-0.0269449,0.007123
0.00958995,0.111088,-0.0274992,0.002569
0.0572362,0.110971,-0.0273032,0.005169
0.0312913,0.113468,-0.0265944,0.007286
0.0583829,0.113607,-0.0266656,0.00423
0.0124233,0.114008,-0.0265213,0.005945
0.0319109,0.114303,-0.0269178,0.009136
0.0137156,0.117125,-0.0275875,0.005566
0.0596136,0.117373,-0.0267186,0.003398
0.0330752,0.11938,-0.0267833,0.015592
0.0599589,0.119454,-0.0266358,0.00405
-0.0135187,0.122026,-0.0271931,0.002457
0.0591634,0.123224,-0.0275034,0.004412
0.0192287,0.122992,-0.0269783,0.00803
0.019777,0.124125,-0.0277911,0.00925
0.0228726,0.12530699,-0.0266804,0.013029
-0.0427913,0.127425,-0.0275875,0.005554
0.0251732,0.12664799,-0.027125,0.019369
-0.0404655,0.126966,-0.0274089,0.010068
0.0265756,0.126818,-0.0269091,0.022999
-0.0420563,0.128208,-0.0277342,0.005338
-0.0406272,0.128121,-0.027798,0.005725
-0.039373,0.12815,-0.027724,0.009172
-0.0384725,0.12721699,-0.0272192,0.008692
-0.0367431,0.127712,-0.026988,0.009617
-0.0430953,0.12958799,-0.0275943,0.003322
0.0592103,0.128208,-0.0273719,0.003023
-0.0422605,0.12957899,-0.0278351,0.005588
-0.0361256,0.129152,-0.0273844,0.008268
-0.0444136,0.13108,-0.0275201,0.004188
-0.0343009,0.131046,-0.0273624,0.007045
-0.0462629,0.13135,-0.0273561,0.004896
-0.0462289,0.13347501,-0.0273363,0.004629
-0.00778566,0.13335299,-0.0275875,0.001819
0.0586463,0.133479,-0.0269105,0.002176
-0.032219,0.133077,-0.0272881,0.005713
-0.030581,0.134841,-0.0270913,0.003271
-0.031323,0.13523801,-0.0277529,0.006617
-0.0454183,0.13546801,-0.0275784,0.004662
0.0569472,0.13753401,-0.0272661,0.001418
-0.028633,0.137411,-0.0269984,0.00285
-0.029398,0.138125,-0.0278243,0.004767
-0.0462742,0.139489,-0.0270977,0.02907
-0.028117,0.139328,-0.0273515,0.003815
-0.0038638,0.139635,-0.0273746,0.000947
-0.028106,0.14057501,-0.0275875,0.003536
-0.00312524,0.141462,-0.0267026,0.001147
-0.0463946,0.141238,-0.027276,0.024473
-0.0525749,0.141606,-0.0267161,0.101965
0.0543107,0.143185,-0.0268998,0.002233
-0.054841,0.142851,-0.0272391,0.133033
-0.00107514,0.1435,-0.0268719,0.001581
-0.0543177,0.145293,-0.0275529,0.094672
-0.027823,0.144425,-0.0276118,0.002783
-0.02626,0.147021,-0.0267701,0.002557
-0.0264092,0.149582,-0.0270342,0.006885
-0.0544731,0.149459,-0.0272455,0.004493
0.00656451,0.149625,-0.0272241,0.00113
0.00707028,0.150612,-0.0265972,0.001715
0.0445452,0.15173399,-0.0267766,0.001322
-0.0562848,0.15121201,-0.0269876,0.031156
-0.055473,0.15265,-0.0278655,0.02708
0.0109963,0.15261,-0.0266588,0.001283
-0.0263325,0.152942,-0.0270208,0.016175
0.0408457,0.153607,-0.0269768,0.002318
-0.055929,0.15470301,-0.0266154,0.052294
0.038429,0.154644,-0.0264879,0.003748
-0.0549318,0.155369,-0.0271319,0.054118
0.028877,0.155864,-0.0274125,0.004423
0.029927,0.155891,-0.0274125,0.003613
-0.0568751,0.15898199,-0.0274118,0.038619
-0.0605406,0.160405,-0.0270266,0.031563
-0.061275,0.161488,-0.0277504,0.026943
-0.0622618,0.160805,-0.0268823,0.033785
-0.0588507,0.16674601,-0.027499,0.004997
-0.058868,0.168019,-0.027581,0.007537
-0.060592,0.168879,-0.0273017,0.008251
-0.060079,0.17123599,-0.0269339,0.013787
-0.0585127,0.171602,-0.0274952,0.020845
-0.0381747,0.173307,-0.0274343,0.050252
-0.0480969,0.17693301,-0.0265687,0.062291
-0.0222324,0.181731,-0.0274644,0.113861
-0.0207831,0.181834,-0.0274717,0.113666
-0.0250209,0.18243399,-0.0273969,0.102901
-0.0250691,0.18489,-0.0273989,0.100178
-0.0245926,0.186341,-0.0266341,0.109111
-0.0226414,0.18719999,-0.0267221,0.112889
-0.0213597,0.18747801,-0.0273614,0.11137
-0.0190139,0.18847699,-0.0267479,0.173187
-0.00909156,0.188576,-0.0269451,0.169988
-0.00769118,0.19066501,-0.027562,0.15887
-0.00889102,0.190524,-0.0270342,0.177587
-0.0385431,0.0540457,-0.0265889,0.030458
-0.0363964,0.0542036,-0.0266385,0.048529
0.0542414,0.0575825,-0.027021,0.062601
-0.0776865,0.0588079,-0.026975,0.001286
0.0269812,0.0601333,-0.027061,0.004854
0.0287491,0.0598319,-0.0266425,0.002928
0.0346003,0.0619723,-0.0271835,0.003357
0.0567257,0.0621833,-0.0269355,0.030509
-0.0862064,0.0644891,-0.0263149,0.072269
0.0509323,0.0717841,-0.0270132,0.017592
-0.0110649,0.0741124,-0.0264885,0.003286
-0.00664717,0.0800511,-0.0268729,0.003334
0.0150535,0.0799679,-0.02656,0.002454
-0.0423091,0.0824922,-0.0274294,0.023825
-0.0741325,0.0840609,-0.0265327,0.005166
-0.0406884,0.0840177,-0.0266991,0.017342
-0.0343093,0.0877221,-0.0264402,0.009063
0.0169791,0.0895212,-0.0266598,0.003584
-0.0561907,0.0898966,-0.0265384,0.004439
-0.030492,0.0915799,-0.0264319,0.008078
-0.0725983,0.0922541,-0.0266332,0.012283
0.0468782,0.0919691,-0.0265098,0.012439
-0.0715594,0.0934843,-0.0265075,0.013454
0.0471358,0.092975,-0.0272375,0.007058
-0.0284769,0.0940393,-0.0264502,0.006326
0.00394291,0.0991794,-0.0273032,0.00161
0.0519885,0.0996574,-0.0265371,0.007094
0.0251163,0.103338,-0.0265916,0.003615
0.0268829,0.105629,-0.0264546,0.003479
0.0279336,0.106625,-0.0272375,0.005666
-0.0205047,0.107769,-0.026582,0.001773
0.00940005,0.109435,-0.0267255,0.003416
0.0321633,0.115645,-0.0263701,0.012269
-0.0442934,0.12554801,-0.0271569,0.004338
-0.0425859,0.125624,-0.0272432,0.005462
-0.0461325,0.125498,-0.0268985,0.003299
0.0301332,0.126517,-0.0272781,0.034347
-0.0464302,0.127582,-0.0271756,0.002683
-0.0443824,0.12771299,-0.02746,0.003184
-0.044448,0.12955,-0.0273658,0.003899
0.0589794,0.129591,-0.0273012,0.00311
-0.0460474,0.12959801,-0.0272486,0.002954
0.058977,0.13100301,-0.0272411,0.002557
-0.032522,0.131468,-0.0266391,0.005944
-0.00845808,0.133192,-0.0266502,0.00102
-0.0467383,0.135185,-0.0270486,0.005095
-0.0460959,0.137513,-0.0272621,0.012035
-0.0270258,0.141225,-0.026951,0.003983
0.0558601,0.141252,-0.0264495,0.001616
-0.054207,0.141821,-0.02643,0.099391
-0.027823,0.142675,-0.0275658,0.002813
-0.0560004,0.145023,-0.0269093,0.117629
0.0525449,0.14499301,-0.0266806,0.002114
-0.0263027,0.145053,-0.0266491,0.00191
-0.054725,0.14701501,-0.0271579,0.060475
0.0050965,0.149268,-0.0266373,0.001789
-0.0548472,0.15069599,-0.0273225,0.010374
-0.0263515,0.15114699,-0.027106,0.011134
0.0127757,0.15340801,-0.026745,0.002823
-0.0263147,0.15490299,-0.026946,0.021777
0.014719,0.15466499,-0.0263247,0.007876
0.0345178,0.15535501,-0.0268126,0.004041
0.0364122,0.15515199,-0.0268286,0.003801
-0.0265521,0.15676901,-0.0267352,0.024643
-0.0583243,0.159514,-0.026765,0.040432
-0.0623111,0.16283201,-0.0264607,0.025249
-0.0602424,0.164635,-0.0267902,0.01319
-0.058973,0.16525,-0.0275078,0.00954
-0.0602374,0.16675501,-0.0270185,0.005085
-0.0582991,0.17278799,-0.0266996,0.028464
-0.0227374,0.180939,-0.0266251,0.111984
-0.0210218,0.181217,-0.0263482,0.107615
-0.0268641,0.182836,-0.0270143,0.101035
-0.0267595,0.18488701,-0.0266303,0.058364
0.0579555,0.0582888,-0.0260912,0.064284
-0.0877966,0.0601417,-0.0263422,0.208495
0.0577482,0.0603671,-0.0264154,0.042369
-0.0861986,0.0599175,-0.0260641,0.187024
-0.054423,0.0594858,-0.026187,0.033203
0.0491895,0.0589264,-0.0261854,0.008104
-0.0701181,0.0607431,-0.0262031,0.0006
0.0230523,0.0607026,-0.0265114,0.007528
0.0326668,0.0602449,-0.0265312,0.001238
-0.0606214,0.0615325,-0.0263578,0.027742
0.0343627,0.060549,-0.0263933,0.001122
0.0406128,0.0623892,-0.0263718,0.024349
-0.0874443,0.0639734,-0.0269854,0.093261
-0.020123,0.065325,-0.0271566,0.030422
-0.016604,0.0678049,-0.0266709,0.010089
-0.077761,0.0681913,-0.0264702,0.027612
-0.075905,0.0681651,-0.026309,0.019314
-0.0821562,0.0686768,-0.0261994,0.058121
-0.0742726,0.0686043,-0.0264884,0.017757
-0.07238,0.0687912,-0.0264186,0.020208
-0.013617,0.0706548,-0.0264389,0.001251
0.0506075,0.0761729,-0.0265735,0.030647
-0.00911496,0.0762969,-0.026412,0.002483
-0.00723475,0.078469,-0.0264122,0.002153
0.0494715,0.0791654,-0.0262609,0.027113
-0.0424404,0.0838267,-0.0266187,0.016839
-0.0462709,0.0842719,-0.0264471,0.020131
-0.0444841,0.0841688,-0.0265535,0.016326
0.0154414,0.0836057,-0.0262672,0.002093
-0.0029606,0.0843192,-0.0264056,0.003596
-0.0486259,0.0852236,-0.0263062,0.014874
-0.0385394,0.0854987,-0.0263913,0.012869
0.0458155,0.0855038,-0.0262275,0.030133
-0.00111957,0.0877947,-0.0264207,0.003088
-0.0539834,0.0884438,-0.0265729,0.004219
-0.032666,0.0897078,-0.0263504,0.007222
0.0458336,0.0900683,-0.0264422,0.035479
0.0005655,0.0902589,-0.0262545,0.00341
-0.0733837,0.0914181,-0.0262806,0.011964
0.017343,0.0910114,-0.0263607,0.002924
-0.0679273,0.0950744,-0.0265696,0.017498
0.00292434,0.0957404,-0.0265594,0.002802
0.0194237,0.0951527,-0.0261877,0.003057
-0.0662647,0.0953281,-0.0264799,0.018845
-0.0644036,0.0952539,-0.026392,0.025259
0.0497147,0.0961368,-0.0261747,0.007066
-0.0259788,0.0977409,-0.0262817,0.004527
0.00437885,0.0979964,-0.0262175,0.002156
-0.0239528,0.101261,-0.0261228,0.003857
0.00554704,0.101546,-0.0265375,0.001895
0.0236854,0.100929,-0.0267345,0.0034
0.00668233,0.103576,-0.0264154,0.001672
0.0536062,0.10215,-0.0261413,0.006335
0.055781,0.105839,-0.0261348,0.004863
0.00857856,0.107587,-0.0264155,0.002733
-0.0200105,0.109731,-0.0260806,0.001836
0.0574843,0.109765,-0.0262312,0.004208
0.0580099,0.111803,-0.0263952,0.00396
-0.0182928,0.11323,-0.0263623,0.001611
-0.0161189,0.117601,-0.0263534,0.001948
0.0602924,0.121573,-0.0265677,0.004207
-0.0144703,0.121239,-0.0264858,0.001817
0.0182578,0.121782,-0.0263384,0.011917
0.0205355,0.123753,-0.0264677,0.009684
0.0602214,0.123641,-0.0265365,0.002845
-0.0443649,0.123453,-0.0264223,0.005038
-0.0424635,0.12342,-0.0265965,0.007744
-0.0403913,0.12535299,-0.0267662,0.009024
0.0245187,0.12596101,-0.0265433,0.01378
0.0287999,0.125995,-0.0262333,0.040691
-0.0366292,0.12592401,-0.0261967,0.008332
-0.0483304,0.12739199,-0.0266671,0.003157
-0.0484665,0.129337,-0.0267194,0.00429
0.0597726,0.129225,-0.0264046,0.001768
-0.0344667,0.12952401,-0.0266319,0.009164
-0.0482768,0.131448,-0.0268267,0.005506
0.0596817,0.13123199,-0.0264185,0.002027
-0.0480703,0.133416,-0.0265224,0.005078
-0.0307579,0.133559,-0.0264576,0.004182
-0.0481936,0.134975,-0.0262621,0.006172
-0.0290374,0.13548,-0.0262943,0.003378
0.0579303,0.137033,-0.0263976,0.001312
-0.0047882,0.13940801,-0.026424,0.001025
-0.0270173,0.13944501,-0.0265286,0.005862
-0.00223649,0.143012,-0.0261355,0.001786
-0.0564122,0.14315701,-0.0265635,0.149563
-0.00070824,0.144795,-0.0262025,0.001746
-0.0564304,0.14681099,-0.0264186,0.096512
0.00132568,0.14687701,-0.0262886,0.003034
0.0518539,0.146578,-0.0263258,0.001963
0.00352499,0.148581,-0.0264149,0.004004
0.0503069,0.14827301,-0.0262029,0.002809
-0.0561389,0.148929,-0.026375,0.005397
0.0438178,0.15251701,-0.0262409,0.00263
-0.0579864,0.153081,-0.0263321,0.070432
0.039377,0.15387499,-0.0270911,0.001688
0.0206397,0.15559199,-0.0265068,0.00894
0.0248079,0.155884,-0.0267184,0.005158
0.0323741,0.15565901,-0.0267631,0.00337
0.0306764,0.156293,-0.0263796,0.004306
-0.0577711,0.15755901,-0.0265062,0.074107
-0.0267302,0.159063,-0.0262414,0.028916
-0.0289815,0.164537,-0.026226,0.029628
-0.031673,0.16782901,-0.0268407,0.035284
-0.0625432,0.16905899,-0.026197,0.010359
-0.0616495,0.17071,-0.0263704,0.010351
-0.0342296,0.17098901,-0.0263553,0.031106
-0.0385617,0.174321,-0.0262522,0.054124
-0.0266078,0.180549,-0.0263758,0.105319
-0.0245912,0.180722,-0.0265583,0.094559
-0.015142,0.18369,-0.0266535,0.182796
-0.0145516,0.184071,-0.026116,0.183174
-0.011723,0.185607,-0.0268875,0.189209
-0.0157714,0.189533,-0.0265595,0.219586
-0.0444146,0.0556824,-0.0263118,0.030384
-0.0341893,0.0556828,-0.0261531,0.060045
0.0553281,0.065325,-0.0265375,0.009652
0.0171575,0.0664795,-0.0260673,0.00381
-0.00141515,0.0860812,-0.0260883,0.004325
0.047602,0.0928141,-0.0262073,0.008123
0.0101771,0.109999,-0.0260699,0.004958
-0.0404353,0.123301,-0.0262267,0.009519
-0.0484999,0.12540799,-0.0265388,0.003697
-0.0482299,0.123506,-0.0262648,0.003269
-0.0384873,0.12521601,-0.0263811,0.011492
-0.049953,0.131281,-0.0262225,0.005266
-0.0481962,0.137081,-0.0262798,0.027676
-0.0479557,0.139195,-0.0262081,0.048101
-0.026423,0.1432,-0.0266521,0.002764
-0.0578352,0.1513,-0.0262246,0.031439
-0.0247372,0.153107,-0.0260618,0.049422
0.0405962,0.154309,-0.0261189,0.004438
0.0288468,0.156395,-0.0263795,0.009678
-0.0641593,0.161163,-0.0261727,0.031592
-0.0284908,0.180981,-0.0262622,0.083165
-0.0290026,0.18291201,-0.0263382,0.073206
-0.0104363,0.18816601,-0.0261202,0.195948
-0.0421761,0.0555189,-0.0258239,0.032782
-0.0487754,0.0575045,-0.0259213,0.033598
0.0543672,0.0567048,-0.0256932,0.043802
0.0562742,0.0568897,-0.0259648,0.063872
-0.0272691,0.059025,-0.0261875,0.067522
-0.0847563,0.0593368,-0.0257208,0.145741
0.025552,0.0590963,-0.0261373,0.009313
0.0479092,0.0593634,-0.024825,0.006193
0.0361625,0.060886,-0.0261438,0.003237
-0.0230798,0.0610777,-0.0259599,0.029985
0.038107,0.061139,-0.0257666,0.009885
0.0575312,0.0623902,-0.0258867,0.027754
-0.0211256,0.0629442,-0.0262079,0.017471
-0.0864904,0.0624077,-0.0259103,0.123419
0.0558638,0.0657566,-0.0246311,0.004523
-0.0172945,0.0662342,-0.0260504,0.00931
0.0547245,0.0666472,-0.024985,0.006953
0.0537568,0.0671917,-0.0258602,0.009289
-0.0151783,0.0685443,-0.0261647,0.001616
0.0530147,0.0684591,-0.0253123,0.012049
-0.071013,0.0691182,-0.0259273,0.075762
0.0519489,0.06998,-0.0260531,0.01247
0.0156368,0.0704,-0.0261483,0.004445
0.0519432,0.0721232,-0.0260249,0.018032
-0.0115406,0.0725749,-0.0258814,0.001921
0.0516738,0.0737185,-0.0261127,0.025722
0.051081,0.076144,-0.0250743,0.030115
-0.0711721,0.0767038,-0.0260301,0.008055
-0.00558691,0.0798566,-0.0259461,0.002484
-0.0731773,0.0804625,-0.0259815,0.006744
-0.00361352,0.0826834,-0.0259461,0.00342
0.015586,0.0857417,-0.0258375,0.002084
-0.051623,0.0868672,-0.0261875,0.008745
-0.0358417,0.0874617,-0.0258638,0.009177
-0.0339615,0.0889783,-0.0258066,0.008936
-0.0330283,0.0904865,-0.0252031,0.005989
0.00209826,0.0926966,-0.0259925,0.003134
-0.029651,0.092975,-0.0261875,0.006772
0.00253379,0.0940679,-0.0260832,0.003869
-0.0630945,0.095072,-0.0261093,0.026522
-0.0278373,0.095075,-0.0262051,0.005058
0.0232996,0.101673,-0.0247063,0.001407
-0.0219549,0.105559,-0.0257506,0.001487
0.00818759,0.106385,-0.026013,0.002971
0.0276314,0.10729,-0.0258387,0.003476
0.029577,0.110661,-0.0260613,0.005456
-0.017958,0.114677,-0.0259269,0.001176
0.0595015,0.115375,-0.0257208,0.002759
0.014227,0.116262,-0.0258375,0.008009
0.0605563,0.117436,-0.0246514,0.002095
0.0162624,0.118133,-0.0246431,0.009482
-0.0159068,0.119207,-0.0258375,0.001407
-0.0444509,0.12171,-0.0260779,0.00704
-0.0461344,0.123115,-0.0261287,0.003721
0.0314366,0.123722,-0.02575,0.032784
-0.050433,0.123688,-0.0259465,0.00354
-0.0389083,0.123869,-0.0260041,0.010676
-0.0500367,0.127268,-0.0260588,0.004101
0.0263358,0.12611,-0.025857,0.025395
-0.0121598,0.12738299,-0.0258354,0.000781
-0.0348197,0.12775099,-0.0260061,0.007093
-0.0502266,0.12949599,-0.0260523,0.004077
-0.032898,0.129962,-0.0260555,0.003724
-0.0114341,0.129761,-0.0253698,0.001959
-0.0100989,0.1311,-0.0260125,0.001058
-0.0311821,0.13167299,-0.0257489,0.003296
0.0606495,0.13170099,-0.0252031,0.001472
-0.0494339,0.133155,-0.0260284,0.005043
0.0592695,0.13355599,-0.0260578,0.001539
-0.00820629,0.13492499,-0.0259151,0.002035
-0.0272681,0.137711,-0.0259717,0.006068
0.0577255,0.138276,-0.0258891,0.001238
-0.0505511,0.14089601,-0.0248055,0.127304
-0.00409548,0.14102,-0.0258096,0.002538
-0.055938,0.141774,-0.0259757,0.137251
-0.0252758,0.141516,-0.025888,0.0062
0.0555913,0.142785,-0.0258444,0.001786
-0.0578236,0.14324801,-0.025898,0.146864
-0.0252233,0.143171,-0.0259676,0.005321
-0.0575969,0.144932,-0.0260674,0.137097
0.0536338,0.144684,-0.0260471,0.002046
-0.0251469,0.146918,-0.0259425,0.004545
0.0476217,0.150488,-0.0258814,0.00267
-0.0248626,0.15114699,-0.0259779,0.03032
0.0133334,0.15431,-0.0259627,0.009496
-0.024638,0.154971,-0.0260428,0.061628
-0.0247651,0.156325,-0.0259279,0.061045
0.0201322,0.155926,-0.02557,0.015241
0.021527,0.156068,-0.0258375,0.018328
0.032552,0.156101,-0.0260125,0.005253
0.023277,0.156185,-0.0261875,0.012413
0.0248695,0.156387,-0.0259273,0.012006
-0.058469,0.15692601,-0.0246702,0.139047
-0.0602723,0.159464,-0.025941,0.052128
-0.0643301,0.15992101,-0.0257804,0.036173
-0.062998,0.15986,-0.0259961,0.036536
-0.0623286,0.158903,-0.025009,0.070372
-0.0270679,0.16123299,-0.0259968,0.025188
-0.0617552,0.16471399,-0.0259966,0.012136
-0.0624758,0.16697,-0.0260472,0.006631
-0.0311841,0.168079,-0.0259542,0.032834
-0.0331035,0.170013,-0.0260789,0.019867
-0.0324945,0.17079499,-0.0247542,0.008703
-0.0598846,0.172653,-0.0260074,0.014756
-0.0345493,0.17276999,-0.0246031,0.047652
-0.0579089,0.17463,-0.0260713,0.033171
-0.0542788,0.176037,-0.0257447,0.035194
-0.0427166,0.175992,-0.0257709,0.07095
-0.0287656,0.184269,-0.0260847,0.079516
-0.0263597,0.186019,-0.026005,0.072242
-0.012095,0.18596099,-0.0258964,0.200082
-0.0405004,0.0555365,-0.024869,0.0333
-0.0363885,0.0555192,-0.024887,0.062406
-0.0427024,0.0558007,-0.0247951,0.035156
-0.0445296,0.0560776,-0.0246772,0.037746
0.0582034,0.0562429,-0.0248977,0.068709
0.0524723,0.0568784,-0.0248138,0.025608
0.0506826,0.0577079,-0.0246617,0.005369
-0.081898,0.0584259,-0.024546,0.050549
-0.0835961,0.059018,-0.0248847,0.1127
0.027127,0.059025,-0.0260371,0.005732
0.030835,0.0591346,-0.0258958,0.001373
0.032202,0.0592,-0.0258776,0.001173
-0.0245887,0.059485,-0.025553,0.047777
0.0224179,0.05975,-0.0252963,0.005781
0.0344277,0.0596083,-0.025597,0.001317
-0.0857505,0.0605075,-0.0253579,0.199068
-0.0546291,0.0597356,-0.0249191,0.040621
0.0367114,0.0599784,-0.0252395,0.002201
-0.0562555,0.0601699,-0.024588,0.045503
0.0462838,0.0602516,-0.0246457,0.016512
0.0588913,0.0605124,-0.025232,0.039153
-0.059253,0.0614174,-0.0257055,0.039047
-0.0225025,0.0601375,-0.0249359,0.005125
0.0391799,0.0613422,-0.0256599,0.012251
-0.0601554,0.061963,-0.0248051,0.045915
0.0203576,0.0615486,-0.0251574,0.004105
-0.0193736,0.0643573,-0.0258744,0.013528
-0.0184348,0.0643441,-0.0252259,0.004598
0.0180803,0.0642182,-0.0254746,0.004342
-0.0779066,0.067276,-0.0248762,0.019194
-0.0799354,0.067434,-0.0252572,0.032759
-0.0742353,0.0681007,-0.0245938,0.045553
-0.0122774,0.0712313,-0.025643,0.001278
-0.0670106,0.0718553,-0.0251634,0.107328
0.0522956,0.0741972,-0.0247284,0.027016
-0.00956389,0.0747775,-0.0257908,0.001966
-0.00636454,0.0777971,-0.0251947,0.002719
0.0142827,0.0798415,-0.0247724,0.001274
-0.00224861,0.0836839,-0.0252852,0.004593
-0.0445246,0.0849346,-0.0258375,0.013788
-0.046373,0.085033,-0.0258375,0.018607
-0.0388574,0.086638,-0.0250691,0.013941
-0.0525308,0.0880207,-0.0246194,0.00826
-0.0539084,0.0885467,-0.0251029,0.008243
0.0453079,0.0874453,-0.0248036,0.044671
0.00116431,0.0896291,-0.0249833,0.004484
-0.0311094,0.0923184,-0.0248844,0.005231
0.00264746,0.091964,-0.0246156,0.004312
0.017042,0.0918304,-0.0246258,0.001864
0.0179832,0.0928023,-0.0256266,0.002769
-0.0722324,0.0939925,-0.0249017,0.019743
-0.0614285,0.0943737,-0.0256661,0.026164
-0.069382,0.0950738,-0.0258868,0.02124
0.0493119,0.0949,-0.025645,0.007447
-0.0624972,0.0953517,-0.0246288,0.040884
0.0205307,0.0977462,-0.0246915,0.001186
-0.0270769,0.0978065,-0.0246831,0.00234
0.0511844,0.0971808,-0.0249696,0.004686
0.0518037,0.0984684,-0.0257,0.005468
-0.0254939,0.0999013,-0.0253464,0.003372
0.0547491,0.102947,-0.0249297,0.003656
-0.0213731,0.10797,-0.0250617,0.001338
0.0583971,0.109741,-0.0246721,0.003324
0.0114725,0.111217,-0.0249309,0.00527
-0.0193512,0.11206,-0.0253003,0.001199
0.0303658,0.113456,-0.0247865,0.003758
-0.0191051,0.113833,-0.0247161,0.000641
0.0145256,0.115974,-0.0246837,0.009295
-0.0170739,0.117584,-0.024929,0.000525
0.0320092,0.117529,-0.0248847,0.01114
-0.0464216,0.119656,-0.0257887,0.006909
-0.0475133,0.120073,-0.0258264,0.005171
-0.0444032,0.119925,-0.0257682,0.008345
-0.0483183,0.121499,-0.0258776,0.002568
-0.0461105,0.120975,-0.0259925,0.004518
-0.0426007,0.121363,-0.0260109,0.008436
-0.0403537,0.121105,-0.0253821,0.00791
0.0610225,0.121149,-0.0255293,0.003641
-0.0406558,0.121841,-0.0258309,0.009948
-0.0150754,0.121728,-0.0251611,0.000588
-0.049523,0.122375,-0.0258505,0.002905
-0.0141532,0.122637,-0.0258602,0.000828
0.020924,0.123136,-0.0248128,0.011952
0.0609858,0.123655,-0.0256388,0.002462
-0.0506736,0.12533,-0.0260234,0.004124
-0.0382938,0.122853,-0.0253825,0.008295
-0.0136296,0.1243,-0.0256625,0.000514
0.0224493,0.124057,-0.0245965,0.013768
0.0305875,0.124684,-0.0256336,0.044722
